52.14950180 10.60960007 370.18499756
51.84450150 10.77620029 370.24700928
51.54970169 10.94270039 370.30300903
51.27439880 11.10700035 370.28399658
50.99330139 11.27180004 370.28298950
50.67649841 11.43760014 370.31298828
50.34329987 11.60490036 370.39099121
50.03219986 11.77159977 370.44799805
49.75279999 11.93529987 370.41000366
49.47159958 12.09749985 370.32800293
49.18259811 12.26060009 370.27398682
48.88150024 12.42580032 370.28399658
48.55580139 12.59220028 370.33099365
48.24290085 12.75889969 370.38500977
47.94290161 12.92529964 370.42898560
47.66519928 13.08819962 370.36999512
47.36380005 13.25300026 370.36999512
47.05989838 13.41800022 370.37100220
46.73030090 13.58240032 370.35800171
46.41260147 13.74689960 370.34799194
46.11220169 13.91279984 370.37600708
45.81980133 14.07839966 370.39401245
45.52119827 14.24250031 370.37500000
45.21149826 14.40709972 370.36700439
44.91299820 14.57240009 370.37600708
44.61230087 14.73869991 370.41198730
44.30070114 14.90270042 370.39001465
43.99940109 15.06779957 370.39599609
43.71039963 15.23130035 370.36199951
43.38059998 15.39780045 370.40100098
43.09759903 15.56270027 370.39999390
42.81179810 15.72679996 370.38198853
42.52090073 15.89389992 370.43200684
42.20569992 16.06299973 370.52999878
41.90459824 16.22649956 370.49798584
41.58539963 16.38850021 370.43099976
41.27489853 16.55660057 370.50100708
41.00260162 16.72249985 370.52301025
40.71849823 16.88470078 370.46200562
40.37630081 17.05010033 370.47198486
40.03400040 17.21710014 370.51699829
39.72269821 17.38559914 370.59298706
39.44449997 17.55179977 370.61898804
39.15689850 17.71940041 370.67199707
38.85960007 17.88590050 370.70300293
38.53710175 18.05200005 370.72601318
38.22629929 18.21809959 370.74798584
37.93769836 18.38229942 370.73001099
37.68730164 18.54409981 370.66598511
37.39319992 18.70689964 370.62200928
37.07160187 18.87140083 370.61199951
36.73279953 19.03940010 370.67001343
36.41970062 19.20639992 370.70800781
36.11080170 19.37470055 370.77099609
35.81800079 19.53989983 370.77398682
35.49660110 19.70569992 370.78698730
35.19029999 19.86899948 370.75399780
34.88959885 20.03210068 370.71701050
34.57429886 20.19919968 370.75500488
34.27289963 20.36660004 370.79800415
33.98210144 20.53499985 370.85800171
33.70149994 20.70000076 370.85699463
33.40689850 20.86179924 370.79901123
33.11209869 21.02459908 370.75799561
32.79460144 21.19109917 370.78298950
32.47779846 21.35709953 370.79998779
32.19639969 21.51919937 370.74798584
31.89220047 21.68339920 370.73400879
31.57769966 21.84830093 370.73098755
31.27169991 22.01560020 370.76998901
30.98609924 22.18029976 370.76400757
30.69899940 22.34110069 370.69299316
30.38199997 22.50609970 370.69198608
30.08029938 22.67280006 370.71899414
29.76379967 22.84160042 370.77999878
29.44429970 23.00550079 370.76098633
29.15439987 23.17009926 370.75399780
28.85169983 23.33600044 370.76800537
28.57069969 23.49530029 370.67700195
28.28260040 23.65889931 370.65399170
27.95809937 23.82819939 370.72198486
27.63459969 23.99740028 370.78500366
27.32760048 24.16600037 370.83898926
27.01110077 24.33309937 370.86999512
26.70269966 24.49659920 370.84600830
26.41920090 24.65889931 370.80499268
26.11199951 24.82620049 370.83599854
25.82040024 24.98929977 370.80700684
25.50729942 25.15349960 370.79501343
25.18149948 25.31999969 370.81500244
24.86450005 25.48730087 370.84698486
24.57139969 25.65399933 370.87200928
24.28450012 25.82040024 370.89001465
23.98469925 25.98530006 370.88598633
23.65460014 26.15239906 370.91400146
23.33970070 26.31410027 370.86599731
23.03899956 26.47769928 370.84500122
22.74320030 26.64590073 370.88800049
22.43169975 26.81649971 370.96398926
22.15340042 26.98240089 370.97500610
21.86730003 27.14620018 370.95599365
21.51149940 27.31979942 371.07199097
21.18860054 27.48609924 371.08499146
20.89089966 27.65069962 371.07699585
20.58139992 27.81929970 371.12298584
20.27420044 27.98730087 371.16000366
19.99629974 28.14929962 371.11700439
19.69799995 28.31209946 371.08599854
19.40069962 28.47750092 371.08801270
19.09720039 28.64559937 371.12600708
18.80550003 28.81180000 371.13800049
18.49209976 28.98130035 371.19299316
18.13069916 29.15509987 371.30200195
17.83799934 29.31780052 371.26901245
17.54770088 29.48060036 371.23699951
17.25799942 29.64509964 371.22799683
16.96360016 29.80909920 371.21301270
16.62940025 29.97690010 371.24301147
16.29459953 30.14349937 371.26098633
15.97990036 30.30870056 371.25900269
15.68140030 30.47489929 371.27099609
15.38780022 30.64290047 371.30300903
15.09370041 30.81060028 371.33200073
14.77659988 30.97879982 371.36700439
14.46630001 31.14439964 371.36999512
14.13700008 31.31150055 371.39099121
13.82820034 31.47240067 371.33898926
13.52690029 31.63249969 371.27801514
13.18309975 31.80800056 371.39700317
12.87580013 31.98240089 371.50299072
12.60900021 32.14899826 371.51699829
12.31910038 32.31489944 371.52200317
11.99370003 32.47999954 371.51901245
11.66469955 32.64390182 371.50201416
11.35140038 32.80609894 371.46499634
11.06739998 32.96509933 371.39300537
10.75020027 33.12979889 371.38598633
10.42990017 33.29740143 371.41198730
10.14109993 33.46260071 371.41000366
9.84412003 33.62979889 371.42999268
9.52766037 33.80020142 371.48599243
9.21977997 33.96989822 371.53399658
8.91786003 34.13560104 371.53601074
222.21200562 -85.31559753 344.91000366
221.96800232 -85.16410065 344.91900635
221.71000671 -85.01899719 344.95300293
221.44299316 -84.86889648 344.96701050
221.23500061 -84.73850250 345.06100464
220.96400452 -84.57430267 345.01800537
220.66700745 -84.40160370 344.94000244
220.43899536 -84.26039886 344.99099731
220.20899963 -84.11519623 345.02499390
219.95700073 -83.96820068 345.05200195
219.69999695 -83.80529785 345.01400757
219.41999817 -83.63999939 344.96600342
219.12600708 -83.47049713 344.89999390
218.88800049 -83.32450104 344.93099976
218.62800598 -83.17759705 344.95901489
218.35899353 -83.01699829 344.92999268
218.10699463 -82.85790253 344.90701294
217.87800598 -82.72200012 344.98001099
217.61999512 -82.57050323 344.98901367
217.37399292 -82.41670227 344.98800659
217.11000061 -82.25810242 344.96701050
216.84199524 -82.10119629 344.95300293
216.59300232 -81.95449829 344.98199463
216.33000183 -81.79889679 344.97399902
216.05799866 -81.64219666 344.95999146
215.83000183 -81.49019623 344.96701050
215.58000183 -81.33969879 344.98001099
215.30999756 -81.19570160 345.02099609
215.04100037 -81.05290222 345.06600952
214.79499817 -80.90039825 345.07101440
214.52499390 -80.74050140 345.04501343
214.25300598 -80.57530212 344.99499512
214.01600647 -80.42019653 344.98800659
213.75500488 -80.27429962 345.02200317
213.50599670 -80.13500214 345.08300781
213.25000000 -79.98370361 345.09298706
212.98100281 -79.81670380 345.03500366
212.74800110 -79.66819763 345.05700684
212.50500488 -79.52189636 345.08898926
212.24800110 -79.37270355 345.10800171
211.98199463 -79.22550201 345.13598633
211.73100281 -79.07199860 345.13699341
211.44500732 -78.91259766 345.11199951
211.15400696 -78.75199890 345.08099365
210.92700195 -78.61299896 345.14599609
210.66299438 -78.45249939 345.11599731
210.41799927 -78.30090332 345.12500000
210.17500305 -78.15260315 345.14801025
209.91200256 -77.98549652 345.08898926
209.65699768 -77.84349823 345.14001465
209.39799500 -77.69950104 345.18301392
209.12699890 -77.55249786 345.21301270
208.86799622 -77.39869690 345.21200562
208.59700012 -77.24150085 345.19699097
208.34700012 -77.08860016 345.20001221
208.05200195 -76.91580200 345.11401367
207.79600525 -76.76010132 345.10501099
207.56199646 -76.62239838 345.17599487
207.30999756 -76.47080231 345.18600464
207.08099365 -76.32450104 345.21899414
206.80499268 -76.16629791 345.19900513
206.52099609 -76.00209808 345.15100098
206.26800537 -75.85040283 345.16000366
206.02499390 -75.70200348 345.18399048
205.78399658 -75.55049896 345.19400024
205.54100037 -75.40370178 345.22500610
205.27299500 -75.24189758 345.18798828
205.02200317 -75.11119843 345.29400635
204.74400330 -74.94629669 345.24200439
204.44599915 -74.77390289 345.15600586
204.19599915 -74.62439728 345.17498779
203.94799805 -74.48619843 345.24700928
203.71299744 -74.33380127 345.25299072
203.43200684 -74.17659760 345.23699951
203.17900085 -74.02629852 345.25299072
202.95199585 -73.87950134 345.28500366
202.70199585 -73.72989655 345.30398560
202.42500305 -73.57129669 345.28100586
202.14700317 -73.40519714 345.22299194
201.89599609 -73.25540161 345.24099731
201.65499878 -73.10459900 345.25500488
201.42199707 -72.94940186 345.24798584
201.17399597 -72.80879974 345.30999756
200.92300415 -72.67040253 345.38299561
200.64300537 -72.50330353 345.31900024
200.37500000 -72.33869934 345.26800537
200.11300659 -72.18769836 345.27999878
199.86099243 -72.03700256 345.29501343
199.60499573 -71.88719940 345.31298828
199.34500122 -71.73989868 345.34500122
199.09399414 -71.59339905 345.38000488
198.85400391 -71.44180298 345.39001465
198.58200073 -71.27790070 345.34100342
198.33299255 -71.12149811 345.32800293
198.06700134 -70.96209717 345.30099487
197.80200195 -70.81369781 345.32699585
197.54899597 -70.66480255 345.35000610
197.28300476 -70.51110077 345.35101318
197.03199768 -70.35900116 345.35800171
196.77999878 -70.21530151 345.40798950
196.50599670 -70.05460358 345.37298584
196.25000000 -69.89720154 345.35598755
195.97599792 -69.74230194 345.35000610
195.70300293 -69.59439850 345.37899780
195.44099426 -69.44010162 345.37600708
195.19000244 -69.28829956 345.38598633
194.93600464 -69.14530182 345.44000244
194.65699768 -68.99289703 345.44699097
194.38800049 -68.82270050 345.36401367
194.14300537 -68.67160034 345.37799072
193.88200378 -68.52680206 345.42300415
193.63200378 -68.36810303 345.39801025
193.38299561 -68.21800232 345.41598511
193.10899353 -68.06510162 345.42098999
192.84199524 -67.91310120 345.42999268
192.59700012 -67.75789642 345.42300415
192.34899902 -67.60720062 345.43899536
192.09199524 -67.45130157 345.42700195
191.83099365 -67.30290222 345.45498657
191.57699585 -67.15209961 345.47100830
191.33999634 -67.00119781 345.48498535
191.08399963 -66.85220337 345.51000977
190.80599976 -66.69519806 345.49398804
190.52200317 -66.53089905 345.43899536
190.26699829 -66.37580109 345.43301392
190.02099609 -66.22450256 345.44500732
189.76800537 -66.07620239 345.47399902
189.52699280 -65.92919922 345.51000977
189.25900269 -65.77410126 345.50299072
189.01499939 -65.62870026 345.54699707
188.76400757 -65.47319794 345.53900146
188.49499512 -65.31780243 345.53100586
188.24899292 -65.17240143 345.57501221
187.98899841 -65.02610016 345.61499023
187.71099854 -64.86170197 345.55899048
187.44099426 -64.70179749 345.52700806
187.20500183 -64.56250000 345.60400391
186.92900085 -64.40619659 345.59100342
186.64900208 -64.23709869 345.51000977
186.40800476 -64.09140015 345.55300903
186.17199707 -63.95869827 345.66699219
185.89399719 -63.80410004 345.66299438
185.62300110 -63.65050125 345.66500854
185.35600281 -63.49330139 345.64700317
185.09399414 -63.34180069 345.66000366
184.85600281 -63.18679810 345.65399170
184.60099792 -63.03219986 345.64999390
184.33000183 -62.88090134 345.66400146
184.07499695 -62.71889877 345.61898804
183.79600525 -62.55870056 345.58401489
183.53999329 -62.40150070 345.56600952
183.26300049 -62.24399948 345.54598999
183.01199341 -62.09680176 345.58200073
182.76600647 -61.95330048 345.64001465
182.52200317 -61.80279922 345.65899658
182.25399780 -61.64799881 345.65399170
181.97700500 -61.49250031 345.64498901
181.69799805 -61.33430099 345.61999512
181.43499756 -61.18059921 345.62100220
181.21099854 -61.03590012 345.67300415
180.94400024 -60.87779999 345.64999390
180.66400146 -60.71820068 345.61700439
180.40100098 -60.56859970 345.64099121
180.14500427 -60.42279816 345.68798828
179.88900757 -60.27510071 345.72299194
179.62800598 -60.11449814 345.68399048
179.34599304 -59.95489883 345.65100098
179.07499695 -59.80849838 345.69500732
178.81599426 -59.66429901 345.75100708
178.57800293 -59.50839996 345.73999023
178.31399536 -59.34949875 345.70999146
178.04800415 -59.20090103 345.74200439
177.78399658 -59.05260086 345.77499390
177.51300049 -58.89049911 345.72601318
177.24899292 -58.73540115 345.72000122
177.00900269 -58.58089828 345.71600342
176.76100159 -58.42570114 345.70800781
176.49499512 -58.27790070 345.74499512
176.20799255 -58.12710190 345.76300049
175.93899536 -57.97330093 345.76400757
175.68899536 -57.82109833 345.77398682
175.42500305 -57.66299820 345.74899292
175.16600037 -57.51330185 345.77499390
174.91400146 -57.36270142 345.79501343
174.67199707 -57.21350098 345.82299805
174.41900635 -57.06570053 345.86099243
174.16000366 -56.90760040 345.83599854
173.88900757 -56.74769974 345.79901123
173.62600708 -56.59590149 345.81201172
173.35800171 -56.44139862 345.80899048
173.07800293 -56.28540039 345.79699707
172.82899475 -56.13159943 345.79699707
172.57099915 -55.97570038 345.78500366
172.31100464 -55.82630157 345.81298828
172.05000305 -55.67250061 345.81399536
171.79299927 -55.52199936 345.83599854
171.52600098 -55.36330032 345.80599976
171.25199890 -55.21440125 345.83801270
170.97399902 -55.06359863 345.85800171
170.71000671 -54.90700150 345.84100342
170.45300293 -54.75410080 345.84799194
170.20100403 -54.59859848 345.83801270
169.92900085 -54.44380188 345.83300781
169.65499878 -54.28580093 345.80700684
169.38000488 -54.13619995 345.83499146
169.14700317 -53.99300003 345.90399170
168.86599731 -53.83919907 345.90499878
168.60600281 -53.68880081 345.92800903
168.35000610 -53.52349854 345.85501099
168.08900452 -53.37490082 345.89001465
167.82699585 -53.22150040 345.89401245
167.55000305 -53.06560135 345.88198853
167.28199768 -52.90689850 345.85101318
167.02699280 -52.75880051 345.88900757
166.77299500 -52.60139847 345.86700439
166.50799561 -52.44729996 345.86599731
166.25000000 -52.29980087 345.90798950
165.98699951 -52.15000153 345.93600464
165.72300720 -51.99269867 345.91400146
165.46699524 -51.84049988 345.92700195
165.19700623 -51.68909836 345.94400024
164.90899658 -51.52870178 345.90100098
164.63999939 -51.37490082 345.90200806
164.38200378 -51.21989822 345.89599609
164.10899353 -51.06409836 345.88299561
163.86500549 -50.91099930 345.88900757
163.60600281 -50.75780106 345.89498901
163.35099792 -50.61500168 345.97100830
163.10400391 -50.47340012 346.05599976
162.85000610 -50.31579971 346.03201294
162.56599426 -50.14970016 345.94900513
162.27799988 -49.99150085 345.92001343
162.00500488 -49.84109879 345.94500732
161.72700500 -49.67940140 345.89099121
161.48100281 -49.53039932 345.92599487
161.23800659 -49.37649918 345.92700195
160.99899292 -49.22409821 345.93798828
160.74400330 -49.07899857 346.00100708
160.46499634 -48.92720032 346.01599121
160.17500305 -48.76599884 345.96600342
159.90800476 -48.60269928 345.89999390
159.65199280 -48.45249939 345.92700195
159.36500549 -48.29710007 345.91699219
159.11099243 -48.14699936 345.94500732
158.85899353 -47.99140167 345.93399048
158.60099792 -47.83539963 345.91900635
158.33299255 -47.67490005 345.87200928
158.07299805 -47.52320099 345.88800049
157.80999756 -47.37730026 345.94799805
157.52799988 -47.22409821 345.95300293
157.25100708 -47.06629944 345.92498779
156.99600220 -46.91859818 345.97198486
156.73399353 -46.77280045 346.03298950
156.47300720 -46.61959839 346.03900146
156.22399902 -46.45980072 345.99600220
155.95199585 -46.29570007 345.92098999
155.68200684 -46.14160156 345.92098999
155.41299438 -45.99499893 345.97601318
155.16000366 -45.84930038 346.03900146
154.89999390 -45.69580078 346.04299927
154.63499451 -45.54359818 346.05700684
154.38000488 -45.38850021 346.04901123
154.10899353 -45.22859955 346.00399780
153.83200073 -45.07600021 346.01599121
153.58500671 -44.93140030 346.08898926
153.32600403 -44.77690125 346.08499146
153.06199646 -44.62129974 346.07299805
152.79600525 -44.47190094 346.10900879
152.52999878 -44.32189941 346.14199829
152.26499939 -44.16360092 346.10800171
151.97900391 -44.00210190 346.04998779
151.70300293 -43.84749985 346.04598999
151.42999268 -43.69789886 346.08099365
151.16799927 -43.55130005 346.14001465
150.91999817 -43.40110016 346.17199707
150.66200256 -43.24599838 346.16400146
150.38999939 -43.09700012 346.20401001
150.12600708 -42.94039917 346.18499756
149.84899902 -42.78279877 346.15600586
149.56599426 -42.62419891 346.11999512
149.29499817 -42.46950150 346.11499023
149.03700256 -42.31750107 346.13198853
148.78199768 -42.16999817 346.18600464
148.50100708 -42.01620102 346.18899536
148.24400330 -41.85710144 346.14801025
148.00799561 -41.70399857 346.15600586
147.73599243 -41.54830170 346.14199829
147.44099426 -41.39479828 346.14801025
147.18099976 -41.24190140 346.15798950
146.93600464 -41.08890152 346.16699219
146.67500305 -40.93859863 346.19900513
146.40600586 -40.79339981 346.27499390
146.12100220 -40.63059998 346.20199585
145.84399414 -40.47399902 346.17999268
145.57899475 -40.32279968 346.20498657
145.32499695 -40.17630005 346.27099609
145.08200073 -40.02099991 346.26098633
144.81799316 -39.86650085 346.25799561
144.55499268 -39.72050095 346.32901001
144.28900146 -39.57099915 346.36999512
144.01499939 -39.41239929 346.33099365
143.73199463 -39.25279999 346.28298950
143.45199585 -39.09579849 346.25799561
143.17500305 -38.94549942 346.29199219
142.89599609 -38.79560089 346.33099365
142.64700317 -38.63869858 346.30700684
142.39599609 -38.48529816 346.31298828
142.11599731 -38.33420181 346.34100342
141.83799744 -38.17449951 346.29098511
141.57200623 -38.01940155 346.28201294
141.30200195 -37.86529922 346.28298950
141.03799438 -37.71530151 346.32101440
140.77099609 -37.55960083 346.30700684
140.53900146 -37.41260147 346.37298584
140.26899719 -37.26070023 346.39498901
139.98599243 -37.10720062 346.40200806
139.69799805 -36.94559860 346.33200073
139.43200684 -36.79690170 346.38400269
139.16299438 -36.64690018 346.42401123
138.88900757 -36.49509811 346.44601440
138.64599609 -36.35060120 346.53900146
138.39500427 -36.18510056 346.43200684
138.10400391 -36.02659988 346.39099121
137.82000732 -35.87289810 346.39599609
137.54600525 -35.71229935 346.33401489
137.27799988 -35.55739975 346.32699585
137.00700378 -35.40900040 346.38400269
136.74899292 -35.26129913 346.44799805
136.46699524 -35.10929871 346.46899414
136.17799377 -34.94660187 346.38598633
135.91999817 -34.79150009 346.37701416
135.65400696 -34.63980103 346.40100098
135.38800049 -34.48249817 346.37100220
135.13099670 -34.32949829 346.38299561
134.85800171 -34.17860031 346.41598511
134.59199524 -34.02550125 346.42800903
134.32099915 -33.87200165 346.43499756
134.05999756 -33.71929932 346.45098877
133.79299927 -33.56399918 346.44000244
133.52200317 -33.41379929 346.48199463
133.25100708 -33.25529861 346.43701172
132.98399353 -33.09840012 346.41000366
132.71800232 -32.94620132 346.43099976
132.45300293 -32.79349899 346.44699097
132.17599487 -32.64139938 346.46899414
131.90400696 -32.49050140 346.50500488
131.62600708 -32.34130096 346.55999756
131.37100220 -32.18709946 346.55999756
131.08799744 -32.02890015 346.51800537
130.79100037 -31.87179947 346.48699951
130.53799438 -31.71780014 346.48999023
130.27799988 -31.56340027 346.48901367
130.00999451 -31.41349983 346.53601074
129.75300598 -31.25939941 346.53799438
129.50000000 -31.10309982 346.51599121
129.22300720 -30.94750023 346.50000000
128.94700623 -30.79809952 346.55499268
128.68400574 -30.64599991 346.57998657
128.42900085 -30.49340057 346.59899902
128.16799927 -30.33760071 346.58300781
127.88700104 -30.18230057 346.57101440
127.63700104 -30.03000069 346.59399414
127.37699890 -29.87700081 346.60900879
127.10500336 -29.72279930 346.60998535
126.81900024 -29.57220078 346.65301514
126.54499817 -29.41279984 346.59298706
126.26499939 -29.25329971 346.53201294
126.00099945 -29.10239983 346.57199097
125.74299622 -28.94770050 346.56698608
125.47399902 -28.79400063 346.57400513
125.18699646 -28.64030075 346.58099365
124.91400146 -28.48800087 346.60598755
124.64900208 -28.33629990 346.63699341
124.39099884 -28.18530083 346.67800903
124.12000275 -28.02829933 346.64599609
123.82199860 -27.86960030 346.59100342
123.55899811 -27.71739960 346.61801147
123.31099701 -27.56769943 346.67498779
123.04599762 -27.41500092 346.69601440
122.75499725 -27.25499916 346.62399292
122.47799683 -27.09959984 346.60998535
122.22799683 -26.94650078 346.62600708
121.96199799 -26.79570007 346.67098999
121.67500305 -26.64189911 346.67700195
121.39700317 -26.49279976 346.74600220
121.12400055 -26.33779907 346.73800659
120.84700012 -26.17869949 346.67498779
120.58000183 -26.02120018 346.63299561
120.31900024 -25.86849976 346.65499878
120.05899811 -25.72050095 346.73999023
119.78199768 -25.57029915 346.79699707
119.50099945 -25.41180038 346.73999023
119.24800110 -25.25469971 346.70300293
118.99800110 -25.10059929 346.70599365
118.73000336 -24.94779968 346.72799683
118.45500183 -24.79560089 346.75799561
118.19000244 -24.64410019 346.79800415
117.90799713 -24.49279976 346.84201050
117.64499664 -24.34149933 346.88598633
117.37300110 -24.18510056 346.85800171
117.09400177 -24.02440071 346.76699829
116.81900024 -23.87000084 346.76699829
116.53900146 -23.72019958 346.83401489
116.27500153 -23.56509972 346.82400513
116.01399994 -23.40789986 346.78298950
115.74199677 -23.25250053 346.76800537
115.49400330 -23.09910011 346.78100586
115.23000336 -22.94540024 346.79299927
114.94999695 -22.79199982 346.80801392
114.64499664 -22.63879967 346.82598877
114.35900116 -22.48649979 346.85900879
114.08499908 -22.33370018 346.88299561
113.82099915 -22.17639923 346.83898926
113.54399872 -22.01910019 346.79299927
113.27400208 -21.86809921 346.84698486
113.02200317 -21.71719933 346.90200806
112.74600220 -21.55979919 346.85598755
112.47699738 -21.40279961 346.81399536
112.21700287 -21.25169945 346.86700439
111.94599915 -21.10029984 346.91598511
111.69100189 -20.94529915 346.90701294
111.39800262 -20.78840065 346.86700439
111.11799622 -20.63080025 346.81399536
110.84300232 -20.48060036 346.88400269
110.57199860 -20.33099937 346.96600342
110.30000305 -20.17519951 346.94400024
110.04000092 -20.01729965 346.88400269
109.77200317 -19.86490059 346.91900635
109.48100281 -19.71179962 346.94299316
109.18199921 -19.55830002 346.95999146
108.91300201 -19.40449905 346.97198486
108.66600037 -19.25119972 346.99301147
108.40699768 -19.09819984 347.01901245
108.13300323 -18.94519997 347.04699707
107.86100006 -18.79019928 347.03799438
107.59400177 -18.63610077 347.04501343
107.31500244 -18.48139954 347.04098511
107.04299927 -18.32290077 346.96600342
106.77999878 -18.16799927 346.95800781
106.49099731 -18.01329994 346.95300293
106.22100067 -17.86090088 346.99301147
105.96900177 -17.70789909 347.02099609
105.68099976 -17.55279922 347.00799561
105.38700104 -17.39590073 346.96099854
105.11399841 -17.24340057 347.00100708
104.83799744 -17.08930016 347.00900269
104.56900024 -16.93580055 347.02700806
104.30999756 -16.78240013 347.05099487
104.03700256 -16.62849998 347.06298828
103.76699829 -16.47540092 347.09399414
103.48699951 -16.32080078 347.09201050
103.21299744 -16.16830063 347.13400269
102.94100189 -16.01329994 347.12500000
102.66799927 -15.85910034 347.13198853
102.40000153 -15.70339966 347.10598755
102.12899780 -15.54950047 347.12200928
101.86599731 -15.39519978 347.12500000
101.60500336 -15.23950005 347.09899902
101.32399750 -15.08300018 347.05499268
101.03700256 -14.93060017 347.10198975
100.75900269 -14.77880001 347.16699219
100.47799683 -14.62440014 347.17001343
100.20700073 -14.46840000 347.13699341
99.92120361 -14.31470013 347.15600586
99.64279938 -14.15979958 347.14898682
99.38520050 -14.00510025 347.14401245
99.10820007 -13.85340023 347.21398926
98.81670380 -13.70040035 347.25500488
98.55560303 -13.54279995 347.17800903
98.29869843 -13.38679981 347.14099121
98.03710175 -13.23449993 347.20001221
97.76609802 -13.08020020 347.20599365
97.49109650 -12.92570019 347.20800781
97.21199799 -12.77340031 347.26998901
96.91290283 -12.61940002 347.28799438
96.65499878 -12.46510029 347.29501343
96.38629913 -12.30959988 347.26998901
96.10250092 -12.15400028 347.24301147
95.82579803 -12.00199986 347.31799316
95.54499817 -11.84959984 347.38299561
95.25910187 -11.69579983 347.40798950
95.00199890 -11.53999996 347.37200928
94.73040009 -11.38449955 347.34600830
94.45349884 -11.22809982 347.29199219
94.16989899 -11.07460022 347.32598877
93.89140320 -10.92029953 347.33599854
93.62380219 -10.76529980 347.32699585
93.35540009 -10.61120033 347.34298706
93.11080170 -10.45689964 347.35501099
92.84069824 -10.30389977 347.41101074
92.55190277 -10.14929962 347.41000366
92.26139832 -9.99407005 347.39199829
91.97899628 -9.83825970 347.35000610
91.70580292 -9.68313980 347.33300781
91.42649841 -9.52985954 347.38198853
91.15670013 -9.37535954 347.38800049
90.86900330 -9.21990013 347.35699463
90.58209991 -9.06486034 347.34201050
90.33789825 -8.91071033 347.36099243
90.07599640 -8.75629044 347.36999512
89.78869629 -8.60229969 347.39599609
89.49079895 -8.44723034 347.37899780
89.20619965 -8.29248047 347.37500000
88.93859863 -8.13799000 347.38198853
88.66870117 -7.98368979 347.39700317
88.39790344 -7.83001995 347.44100952
88.14040375 -7.67594004 347.46701050
87.86530304 -7.52133989 347.47198486
87.59410095 -7.36734009 347.50399780
87.31849670 -7.21306992 347.52499390
87.03320313 -7.05846977 347.53100586
86.73770142 -6.90426016 347.55599976
86.44080353 -6.74947977 347.55300903
86.16249847 -6.59548998 347.59201050
85.91320038 -6.44119978 347.61700439
85.63760376 -6.28568983 347.57501221
85.34310150 -6.13119984 347.58898926
85.06030273 -5.97698021 347.61898804
84.78299713 -5.82165003 347.58499146
84.49710083 -5.66660023 347.56600952
84.20719910 -5.51187992 347.56698608
83.93489838 -5.35705996 347.56100464
83.64330292 -5.20215988 347.54998779
83.36419678 -5.04728985 347.54000854
83.08339691 -4.89367008 347.61801147
82.82710266 -4.73899984 347.62399292
82.56289673 -4.58434010 347.63101196
82.27700043 -4.42919016 347.60101318
82.00389862 -4.27462006 347.61599731
81.72440338 -4.11995983 347.62399292
81.46610260 -3.96547008 347.64700317
81.19740295 -3.81086993 347.66198730
80.90000153 -3.65582991 347.63699341
80.62979889 -3.50093007 347.62298584
80.37329865 -3.34630990 347.63800049
80.07649994 -3.19156003 347.63900757
79.78669739 -3.03727007 347.69299316
79.50620270 -2.88253999 347.70001221
79.22059631 -2.72776008 347.70199585
78.93769836 -2.57318997 347.73199463
78.67749786 -2.41845989 347.74398804
78.39929962 -2.26335001 347.69799805
78.11859894 -2.10864997 347.71200562
77.84120178 -1.95421004 347.77499390
77.57440186 -1.79937994 347.77600098
77.29180145 -1.64444005 347.75201416
76.99410248 -1.48958004 347.73901367
76.71849823 -1.33464003 347.70498657
76.43060303 -1.17991996 347.72900391
76.14189911 -1.02523005 347.76501465
75.87539673 -0.87047702 347.79400635
75.61979675 -0.71558601 347.76599121
75.33809662 -0.56086802 347.82998657
75.02210236 -0.40607101 347.87399292
74.73829651 -0.25120401 347.87701416
74.48519897 -0.09631870 347.82400513
74.22450256 0.05852260 347.79000854
73.93270111 0.21338400 347.83801270
73.65380096 0.36827701 347.87600708
73.37239838 0.52316701 347.88900757
73.10579681 0.67802697 347.88101196
72.82479858 0.83296603 347.90899658
72.56069946 0.98782998 347.90200806
72.28980255 1.14296997 347.98098755
71.98590088 1.29796004 348.00000000
71.68779755 1.45271003 347.95700073
71.44979858 1.60729003 347.88800049
71.17120361 1.76227999 347.91000366
70.89270020 1.91719997 347.91699219
70.61479950 2.07214999 347.92700195
70.32610321 2.22708988 347.93399048
70.04070282 2.38187003 347.91699219
69.74590302 2.53671002 347.91101074
69.45490265 2.69195008 347.95700073
69.19149780 2.84680009 347.94900513
68.91619873 3.00144005 347.91900635
68.63590240 3.15682006 347.97399902
68.35469818 3.31255007 348.05899048
68.07839966 3.46766996 348.07598877
67.77600098 3.62239003 348.05300903
67.46469879 3.77701998 348.02398682
67.18740082 3.93174005 348.00500488
66.91010284 4.08646011 347.98699951
66.63430023 4.24217987 348.05300903
66.35870361 4.39715004 348.05499268
66.08470154 4.55143023 348.00299072
65.80809784 4.70643997 348.00900269
65.52120209 4.86147022 348.01599121
65.25440216 5.01633978 348.01199341
64.99639893 5.17132998 348.01699829
64.71089935 5.32581997 347.98699951
64.40830231 5.48066998 347.98300171
64.11940002 5.63599014 348.00799561
63.85680008 5.79112005 348.01998901
63.56750107 5.94686985 348.06799316
63.28839874 6.10105991 348.02398682
62.99720001 6.25632000 348.04199219
62.70209885 6.41173983 348.06799316
62.42089844 6.56664991 348.06500244
62.14619827 6.72106981 348.03799438
61.88479996 6.87549019 348.01199341
61.60929871 7.03164005 348.07199097
61.32529831 7.18746996 348.11401367
61.02259827 7.34230995 348.10800171
60.75320053 7.49603987 348.04998779
60.48630142 7.65122986 348.06100464
60.20180130 7.80523014 348.01800537
59.92350006 7.96108007 348.05801392
59.65859985 8.11699963 348.10000610
59.37189865 8.27289009 348.13900757
59.07569885 8.42918968 348.19299316
58.78810120 8.58463001 348.20999146
58.51319885 8.73906994 348.18701172
58.23540115 8.89428997 348.19500732
57.94940186 9.04996014 348.22100830
57.64799881 9.20563984 348.24600220
57.36339951 9.36219025 348.30200195
57.09320068 9.51618958 348.26300049
56.81679916 9.67039967 348.23300171
56.53160095 9.82641983 348.26800537
56.25529861 9.98114967 348.25799561
55.97019958 10.13609982 348.25299072
55.68600082 10.29170036 348.27301025
55.40660095 10.44579983 348.24200439
55.11439896 10.60099983 348.24700928
54.84289932 10.75570011 348.23800659
54.55319977 10.91269970 348.29901123
54.28760147 11.06719971 348.28201294
54.00830078 11.22179985 348.26699829
53.70880127 11.37489986 348.20800781
53.41490173 11.52960014 348.19900513
53.13830185 11.68570042 348.23098755
52.88729858 11.83889961 348.17800903
52.62099838 11.99310017 348.15399170
52.31930161 12.15030003 348.21798706
52.01309967 12.30739975 348.27600098
51.70989990 12.46129990 348.24398804
51.41220093 12.61559963 348.22299194
51.11270142 12.77210045 348.26400757
50.82020187 12.92889977 348.31201172
50.55799866 13.08310032 348.28799438
50.28889847 13.23680019 348.25201416
50.00939941 13.39220047 348.26199341
49.72729874 13.54860020 348.29800415
49.43590164 13.70499992 348.33099365
49.15769958 13.85990047 348.32699585
48.89080048 14.01480007 348.32400513
48.60290146 14.17119980 348.35598755
48.31589890 14.32759953 348.38699341
48.03279877 14.48229980 348.37899780
47.74340057 14.63519955 348.32501221
47.45830154 14.78880024 348.29000854
47.14839935 14.94670010 348.35598755
46.87900162 15.10179996 348.35800171
46.61380005 15.25769997 348.37500000
46.32880020 15.41450024 348.41400146
46.03540039 15.57079983 348.44198608
45.75930023 15.72570038 348.43600464
45.49789810 15.87849998 348.38598633
45.20579910 16.03549957 348.42599487
44.90829849 16.19400024 348.49899292
44.60950089 16.35059929 348.53100586
44.31829834 16.50429916 348.50100708
44.03409958 16.65740013 348.45800781
43.79339981 16.81069946 348.41799927
43.52460098 16.96710014 348.44601440
43.22230148 17.12669945 348.53601074
42.90670013 17.28339958 348.56698608
42.60169983 17.43829918 348.56201172
42.32880020 17.59440041 348.57998657
42.05910110 17.75029945 348.59500122
41.76499939 17.90509987 348.58700562
41.46760178 18.05909920 348.56399536
41.16230011 18.21489906 348.57501221
40.89270020 18.36949921 348.56600952
40.61470032 18.52939987 348.65399170
40.31000137 18.68759918 348.70901489
40.01919937 18.84140015 348.68200684
39.74909973 18.99399948 348.63400269
39.48260117 19.14679909 348.59100342
39.18750000 19.30100060 348.57299805
38.90579987 19.45680046 348.58401489
38.61840057 19.61470032 348.63299561
38.35469818 19.76630020 348.56799316
38.06480026 19.92390060 348.61099243
37.77830124 20.08239937 348.66900635
37.49729919 20.24010086 348.70999146
37.21220016 20.39679909 348.73498535
36.92499924 20.55120087 348.72100830
36.64509964 20.70369911 348.67599487
36.34019852 20.86179924 348.72299194
36.05260086 21.01819992 348.74301147
35.78369904 21.17200089 348.71899414
35.50970078 21.32690048 348.71301270
35.18730164 21.48719978 348.79598999
34.89820099 21.63909912 348.73999023
34.63710022 21.79310036 348.72100830
34.36949921 21.95009995 348.74798584
34.08069992 22.10659981 348.76800537
33.78519821 22.26289940 348.78298950
33.49459839 22.41640091 348.75698853
33.18690109 22.57130051 348.75100708
32.88010025 22.72360039 348.70498657
32.62409973 22.87700081 348.67700195
32.35779953 23.03269958 348.68399048
32.06520081 23.19039917 348.72100830
31.76910019 23.34679985 348.73901367
31.46689987 23.50480080 348.77899170
31.19980049 23.65970039 348.77398682
30.94939995 23.81150055 348.72399902
30.64870071 23.97010040 348.77200317
30.31110001 24.13229942 348.87298584
30.05260086 24.28230095 348.79598999
29.77799988 24.43140030 348.70800781
29.46949959 24.58609962 348.69900513
29.20120049 24.74489975 348.75000000
28.92289925 24.90189934 348.77499390
28.65480042 25.05550003 348.75201416
28.37980080 25.21299934 348.78201294
28.07789993 25.37430000 348.86499023
27.77960014 25.52939987 348.86300659
27.47310066 25.68549919 348.87298584
27.18980026 25.84090042 348.87399292
26.91559982 25.99799919 348.89801025
26.62450027 26.15670013 348.94299316
26.34009933 26.31069946 348.92599487
26.04920006 26.46599960 348.92498779
25.75429916 26.62540054 348.97799683
25.45890045 26.78470039 349.02999878
25.19160080 26.93560028 348.97100830
24.91250038 27.08839989 348.93899536
24.61860085 27.24570084 348.96398926
24.30100060 27.40719986 349.04199219
24.00410080 27.56550026 349.07901001
23.71739960 27.72400093 349.11801147
23.43950081 27.88220024 349.15200806
23.15589905 28.03540039 349.12399292
22.85740089 28.19009972 349.11599731
22.58950043 28.34000015 349.04800415
22.29840088 28.49220085 349.00799561
21.98690033 28.65029907 349.04199219
21.70350075 28.81170082 349.11401367
21.43810081 28.96940041 349.14199829
21.12430000 29.12949944 349.19699097
20.84140015 29.28219986 349.16500854
20.56990051 29.43470001 349.13000488
20.27829933 29.59110069 349.14199829
19.97940063 29.74650002 349.14199829
19.69099998 29.89819908 349.09799194
19.41320038 30.05410004 349.10299683
19.14380074 30.21279907 349.14099121
18.83760071 30.37360001 349.20300293
18.56030083 30.52540016 349.16101074
18.27350044 30.67830086 349.13198853
17.98119926 30.83359909 349.13000488
17.70960045 30.98539925 349.08999634
17.41309929 31.14159966 349.09899902
17.11409950 31.30030060 349.13500977
16.83620071 31.45479965 349.12500000
16.54739952 31.61210060 349.14599609
16.23329926 31.77429962 349.22000122
15.93710041 31.93250084 349.24899292
15.63749981 32.08710098 349.23999023
15.35359955 32.24200058 349.23400879
15.06400013 32.39870071 349.24798584
14.78520012 32.55319977 349.23599243
14.50049973 32.70869827 349.23699951
14.20650005 32.86859894 349.28399658
13.91930008 33.02799988 349.32501221
13.62679958 33.18420029 349.33200073
13.31840038 33.33710098 349.30599976
13.02239990 33.48979950 349.27600098
12.75559998 33.64440155 349.26599121
12.46980000 33.80310059 349.29998779
12.15489960 33.96429825 349.35800171
11.87119961 34.12030029 349.36300659
11.61419964 34.27130127 349.31698608
11.31229973 34.42819977 349.33099365
11.01159954 34.58649826 349.35900879
10.71119976 34.74660110 349.40499878
10.44519997 34.90269852 349.41101074
10.17770004 35.05979919 349.42599487
9.88817024 35.21839905 349.45599365
9.60289001 35.37170029 349.43399048
9.30023956 35.52840042 349.44400024
8.99312019 35.69169998 349.52099609
8.70701981 35.84370041 349.48599243
218.91299438 -82.48560333 332.86999512
218.67199707 -82.33689880 332.86801147
218.41900635 -82.18460083 332.85101318
218.14599609 -82.02539825 332.80700684
217.88200378 -81.86810303 332.76998901
217.66200256 -81.72810364 332.80300903
217.42599487 -81.58070374 332.80599976
217.17700195 -81.44049835 332.83801270
216.91900635 -81.29070282 332.83200073
216.66799927 -81.13719940 332.80999756
216.41200256 -80.98989868 332.81399536
216.16999817 -80.84750366 332.83700562
215.92500305 -80.70300293 332.85299683
215.67799377 -80.55549622 332.85501099
215.43299866 -80.41210175 332.87500000
215.18800354 -80.26719666 332.88900757
214.96000671 -80.12590027 332.91699219
214.71099854 -79.97979736 332.92599487
214.44900513 -79.82640076 332.90399170
214.17399597 -79.66200256 332.83700562
213.94400024 -79.51670074 332.84899902
213.71200562 -79.36990356 332.85501099
213.44900513 -79.22109985 332.85198975
213.20799255 -79.08209991 332.89099121
212.96499634 -78.94120026 332.92098999
212.71499634 -78.78109741 332.87100220
212.45799255 -78.63130188 332.86401367
212.20399475 -78.48139954 332.85699463
211.93699646 -78.32499695 332.82199097
211.71400452 -78.19249725 332.88900757
211.48300171 -78.05879974 332.95098877
211.22300720 -77.90869904 332.94299316
211.00199890 -77.76709747 332.97100830
210.75700378 -77.62539673 332.99899292
210.50500488 -77.47660065 332.99700928
210.22999573 -77.31199646 332.92599487
209.98199463 -77.16970062 332.95199585
209.72200012 -77.02700043 332.97601318
209.49200439 -76.88339996 332.99600220
209.25500488 -76.73480225 332.99398804
208.98500061 -76.58450317 332.98498535
208.74000549 -76.43759918 332.99099731
208.50500488 -76.29859924 333.03201294
208.26400757 -76.15100098 333.03500366
208.02299500 -76.00389862 333.04000854
207.76600647 -75.85579681 333.04000854
207.52400208 -75.70760345 333.04098511
207.27099609 -75.55460358 333.01998901
207.01199341 -75.39679718 332.97799683
206.75000000 -75.24810028 332.97601318
206.52400208 -75.10859680 333.01400757
206.26800537 -74.95549774 332.99301147
205.99099731 -74.80509949 332.98300171
205.74600220 -74.66300201 333.01098633
205.49800110 -74.51460266 333.01000977
205.25000000 -74.36509705 333.00399780
205.00000000 -74.22149658 333.02499390
204.76100159 -74.06880188 333.00500488
204.50900269 -73.91899872 332.99798584
204.27000427 -73.78019714 333.04098511
204.03199768 -73.63670349 333.06201172
203.76300049 -73.48970032 333.06799316
203.50300598 -73.33930206 333.05801392
203.25199890 -73.19390106 333.07199097
203.01100159 -73.04429626 333.06500244
202.76800537 -72.89890289 333.07901001
202.52900696 -72.75749969 333.10998535
202.28700256 -72.60540009 333.09298706
202.04299927 -72.45690155 333.09201050
201.80099487 -72.30999756 333.09799194
201.54100037 -72.16339874 333.10598755
201.27200317 -72.00749969 333.07101440
201.03100586 -71.86109924 333.07901001
200.79299927 -71.71179962 333.07501221
200.54400635 -71.56580353 333.08499146
200.31100464 -71.42729950 333.13101196
200.04499817 -71.26560211 333.06799316
199.78700256 -71.11499786 333.05801392
199.53599548 -70.97309875 333.08700562
199.28500366 -70.82830048 333.10400391
199.02900696 -70.66539764 333.03500366
198.79200745 -70.52649689 333.07901001
198.54699707 -70.38659668 333.11898804
198.29299927 -70.23329926 333.09500122
198.07000732 -70.08830261 333.11099243
197.82600403 -69.93730164 333.09799194
197.58500671 -69.79000092 333.10299683
197.34599304 -69.64859772 333.13598633
197.06500244 -69.49690247 333.11898804
196.80799866 -69.34500122 333.10198975
196.57299805 -69.20829773 333.15798950
196.33599854 -69.06860352 333.20001221
196.09199524 -68.92720032 333.23300171
195.83000183 -68.76850128 333.18301392
195.57200623 -68.61910248 333.17800903
195.31100464 -68.47000122 333.17401123
195.05599976 -68.32060242 333.16900635
194.79800415 -68.16149902 333.11599731
194.55400085 -68.01100159 333.10501099
194.32200623 -67.86769867 333.12899780
194.07000732 -67.73079681 333.18600464
193.81900024 -67.58630371 333.20498657
193.54600525 -67.42620087 333.14700317
193.30000305 -67.27899933 333.15200806
193.05599976 -67.13729858 333.18499756
192.78900146 -66.98650360 333.17300415
192.55700684 -66.84069824 333.18499756
192.31199646 -66.69869995 333.21701050
192.04699707 -66.55249786 333.22799683
191.77099609 -66.40019989 333.20800781
191.53900146 -66.25489807 333.22299194
191.30599976 -66.11250305 333.25299072
191.05999756 -65.97000122 333.28298950
190.80299377 -65.81220245 333.23498535
190.54499817 -65.65209961 333.17498779
190.28700256 -65.50969696 333.20498657
190.07400513 -65.37220001 333.26098633
189.81300354 -65.22149658 333.24899292
189.56500244 -65.07360077 333.25100708
189.31799316 -64.92559814 333.25299072
189.05200195 -64.77510071 333.24200439
188.78900146 -64.62110138 333.21301270
188.54800415 -64.48339844 333.26800537
188.30999756 -64.32869720 333.23498535
188.05599976 -64.17880249 333.22698975
187.81399536 -64.03060150 333.22799683
187.56599426 -63.88700104 333.25201416
187.30499268 -63.73289871 333.22198486
187.05099487 -63.58810043 333.24099731
186.79499817 -63.43579865 333.22000122
186.53700256 -63.28749847 333.22000122
186.28399658 -63.13159943 333.18099976
186.05299377 -62.99140167 333.22399902
185.80999756 -62.84370041 333.22698975
185.57000732 -62.70339966 333.26998901
185.32800293 -62.56169891 333.30499268
185.06700134 -62.41070175 333.29098511
184.82400513 -62.26800156 333.32199097
184.57600403 -62.12269974 333.33898926
184.32400513 -61.96760178 333.30200195
184.08799744 -61.82799911 333.35000610
183.84700012 -61.69120026 333.41198730
183.58999634 -61.54430008 333.42098999
183.29899597 -61.37099838 333.28601074
183.04699707 -61.22809982 333.31600952
182.80599976 -61.08539963 333.34698486
182.54499817 -60.93009949 333.30899048
182.30900574 -60.78369904 333.32000732
182.05900574 -60.64440155 333.36898804
181.77400208 -60.48569870 333.31298828
181.50799561 -60.33480072 333.29901123
181.28100586 -60.19620132 333.35299683
181.05700684 -60.06100082 333.42599487
180.77499390 -59.89640045 333.33700562
180.51199341 -59.74190140 333.30200195
180.25599670 -59.59749985 333.32501221
180.01100159 -59.44469833 333.29998779
179.78999329 -59.30450058 333.34600830
179.54200745 -59.16059875 333.37200928
179.26400757 -59.01020050 333.35998535
178.99699402 -58.85599899 333.32800293
178.75900269 -58.70560074 333.31600952
178.50300598 -58.56330109 333.35101318
178.24899292 -58.41109848 333.32901001
177.99600220 -58.26259995 333.32800293
177.75599670 -58.12070084 333.36599731
177.52699280 -57.97560120 333.38500977
177.30200195 -57.82830048 333.39099121
177.03599548 -57.67150116 333.34298706
176.75199890 -57.53020096 333.38400269
176.50500488 -57.38579941 333.40701294
176.26699829 -57.23669815 333.40399170
176.00100708 -57.08549881 333.38699341
175.75500488 -56.93889999 333.39801025
175.50799561 -56.79449844 333.42098999
175.25000000 -56.64099884 333.39199829
175.00500488 -56.49539948 333.40798950
174.73800659 -56.34009933 333.36801147
174.47500610 -56.19469833 333.38598633
174.21899414 -56.04299927 333.36599731
173.96299744 -55.90019989 333.39898682
173.71699524 -55.75690079 333.42999268
173.48800659 -55.61550140 333.47198486
173.23300171 -55.46139908 333.43798828
172.98300171 -55.31909943 333.47500610
172.71899414 -55.17509842 333.50201416
172.47099304 -55.02579880 333.49700928
172.21800232 -54.86740112 333.43701172
171.94999695 -54.71120071 333.39001465
171.68400574 -54.55939865 333.36898804
171.44200134 -54.41790009 333.41101074
171.21499634 -54.27619934 333.45300293
170.96499634 -54.13029861 333.46899414
170.71800232 -53.98519897 333.48901367
170.47900391 -53.83449936 333.47500610
170.21699524 -53.68880081 333.49200439
169.93200684 -53.53300095 333.44699097
169.67100525 -53.38190079 333.42999268
169.43200684 -53.23339844 333.42999268
169.16900635 -53.08560181 333.43399048
168.92700195 -52.94459915 333.48098755
168.67399597 -52.80020142 333.50601196
168.41099548 -52.64640045 333.47299194
168.15899658 -52.50030136 333.48699951
167.90299988 -52.35169983 333.48699951
167.65600586 -52.20130157 333.47399902
167.40600586 -52.05889893 333.51300049
167.15299988 -51.91559982 333.54598999
166.89599609 -51.76029968 333.50299072
166.64599609 -51.60889816 333.48400879
166.37899780 -51.46070099 333.48599243
166.13099670 -51.31489944 333.50201416
165.86500549 -51.16519928 333.49398804
165.60899353 -51.01720047 333.49700928
165.35400391 -50.86980057 333.50500488
165.11900330 -50.72069931 333.50100708
164.88000488 -50.57669830 333.52999878
164.60899353 -50.42800140 333.52899170
164.35000610 -50.28609848 333.57199097
164.10200500 -50.13100052 333.52801514
163.85600281 -49.98089981 333.51699829
163.61099243 -49.83779907 333.55398560
163.36099243 -49.68320084 333.51199341
163.10299683 -49.53630066 333.52301025
162.82299805 -49.38980103 333.53698730
162.56100464 -49.24349976 333.55099487
162.30000305 -49.09049988 333.52099609
162.05700684 -48.94329834 333.52899170
161.80700684 -48.79510117 333.53201294
161.54899597 -48.64839935 333.54400635
161.28100586 -48.49110031 333.48300171
161.03100586 -48.34600067 333.50698853
160.77000427 -48.19739914 333.50601196
160.52200317 -48.04349899 333.46798706
160.26400757 -47.89730072 333.48300171
160.01100159 -47.75600052 333.53399658
159.75700378 -47.61299896 333.57199097
159.50300598 -47.45729828 333.52099609
159.25700378 -47.30429840 333.48901367
159.01499939 -47.15760040 333.50201416
158.76800537 -47.01959991 333.57598877
158.51800537 -46.87490082 333.60299683
158.25799561 -46.72340012 333.58200073
158.00199890 -46.56969833 333.54501343
157.75100708 -46.41960144 333.53298950
157.49600220 -46.27379990 333.55300903
157.21899414 -46.12540054 333.55300903
156.95300293 -45.97050095 333.50698853
156.71699524 -45.82220078 333.50799561
156.48300171 -45.68109894 333.56201172
156.21499634 -45.52550125 333.51000977
155.94599915 -45.37220001 333.47500610
155.69700623 -45.22859955 333.51000977
155.43499756 -45.08689880 333.55999756
155.16499329 -44.94160080 333.58401489
154.91200256 -44.78049850 333.48999023
154.66499329 -44.63589859 333.51901245
154.41600037 -44.49359894 333.56600952
154.17100525 -44.34249878 333.54598999
153.92100525 -44.19739914 333.57101440
153.66200256 -44.05630112 333.62799072
153.38299561 -43.90660095 333.61898804
153.11900330 -43.75070190 333.56201172
152.86500549 -43.59700012 333.52200317
152.60800171 -43.44950104 333.52999878
152.34899902 -43.29880142 333.51300049
152.10400391 -43.15319824 333.53500366
151.83900452 -43.00360107 333.52600098
151.58900452 -42.86180115 333.57800293
151.37199402 -42.72060013 333.63500977
151.12699890 -42.57730103 333.67700195
150.85600281 -42.42089844 333.61499023
150.58599854 -42.26910019 333.58898926
150.33000183 -42.12149811 333.59600830
150.06700134 -41.96960068 333.56900024
149.81700134 -41.82649994 333.61199951
149.56900024 -41.68500137 333.66900635
149.32000732 -41.54249954 333.71701050
149.04200745 -41.38729858 333.66400146
148.77400208 -41.23559952 333.63800049
148.50100708 -41.08449936 333.61700439
148.26199341 -40.93360138 333.59799194
148.02999878 -40.78829956 333.62399292
147.76199341 -40.64279938 333.64898682
147.48399353 -40.48300171 333.55599976
147.23599243 -40.33330154 333.54598999
146.96800232 -40.18840027 333.57598877
146.70399475 -40.04430008 333.61300659
146.46800232 -39.89860153 333.63598633
146.22700500 -39.74729919 333.61300659
145.94900513 -39.59780121 333.60501099
145.70599365 -39.45209885 333.62799072
145.45799255 -39.30519867 333.64199829
145.17599487 -39.15349960 333.61499023
144.89500427 -39.00379944 333.60501099
144.64900208 -38.86029816 333.64801025
144.42199707 -38.71659851 333.69000244
144.16799927 -38.56610107 333.67300415
143.90600586 -38.42160034 333.70800781
143.65400696 -38.27000046 333.68200684
143.39799500 -38.12030029 333.67199707
143.14500427 -37.97589874 333.70901489
142.88699341 -37.82979965 333.73001099
142.63000488 -37.67850113 333.70599365
142.36599731 -37.53079987 333.71398926
142.10899353 -37.38719940 333.75799561
141.83399963 -37.23830032 333.75500488
141.56199646 -37.07989883 333.66699219
141.30999756 -36.92819977 333.63800049
141.06100464 -36.78770065 333.71099854
140.83599854 -36.64189911 333.73699951
140.59100342 -36.49050140 333.70999146
140.32299805 -36.34479904 333.73699951
140.05400085 -36.19770050 333.75000000
139.80700684 -36.05020142 333.76098633
139.53799438 -35.89889908 333.73498535
139.27600098 -35.75189972 333.75000000
139.02299500 -35.61149979 333.82598877
138.75700378 -35.45999908 333.79901123
138.49099731 -35.30680084 333.75500488
138.23500061 -35.16059875 333.77899170
137.97399902 -35.01110077 333.76998901
137.73100281 -34.86180115 333.76300049
137.46000671 -34.70940018 333.72601318
137.18200684 -34.55920029 333.71099854
