94.48750305 12.35700035 291.01998901
94.27159882 12.48779964 291.04901123
94.05069733 12.61769962 291.05700684
93.82150269 12.74540043 291.01199341
93.59850311 12.87370014 290.98599243
93.35970306 13.00380039 290.99700928
93.11660004 13.13430023 291.01800537
92.87550354 13.26379967 291.01699829
92.67330170 13.39120007 290.97000122
92.44539642 13.51900005 290.93301392
92.20649719 13.65060043 290.97799683
91.96510315 13.78190041 291.01400757
91.74639893 13.91079998 291.00100708
91.51999664 14.03890038 290.97000122
91.31120300 14.16769981 290.95599365
91.09190369 14.29660034 290.94299316
90.83730316 14.42730045 290.96600342
90.58769989 14.55799961 290.98901367
90.35420227 14.68770027 290.99398804
90.12370300 14.81799984 291.00698853
89.90339661 14.94530010 290.96398926
89.67440033 15.07199955 290.90899658
89.45760345 15.19919968 290.86499023
89.24320221 15.32800007 290.85101318
89.01779938 15.45740032 290.85000610
88.78089905 15.59029961 290.91400146
88.53880310 15.72200012 290.95401001
88.31580353 15.85029984 290.93200684
88.09649658 15.97959995 290.92700195
87.86530304 16.10899925 290.92700195
87.64080048 16.23690033 290.89700317
87.39320374 16.36790085 290.92401123
87.15820313 16.49869919 290.94601440
86.93240356 16.62689972 290.92401123
86.70700073 16.75600052 290.91598511
86.49639893 16.88249969 290.86401367
86.28829956 17.00810051 290.79800415
86.06990051 17.13829994 290.80999756
85.86039734 17.26510048 290.76501465
85.63739777 17.39509964 290.77398682
85.38480377 17.52610016 290.79998779
85.14389801 17.65859985 290.85000610
84.91290283 17.78739929 290.83898926
84.68289948 17.91629982 290.82901001
84.45330048 18.04330063 290.78900146
84.21649933 18.17250061 290.78601074
83.97530365 18.30430031 290.82299805
83.75589752 18.43300056 290.81100464
83.54429626 18.56180000 290.79998779
83.31099701 18.69090080 290.79501343
83.07530212 18.81970024 290.78500366
82.85859680 18.94890022 290.77999878
82.62069702 19.07900047 290.79000854
82.38539886 19.20639992 290.76000977
82.14540100 19.33740044 290.78298950
81.91870117 19.46489906 290.75299072
81.69219971 19.59440041 290.75500488
81.48500061 19.72340012 290.74700928
81.25119781 19.85370064 290.76000977
81.03060150 19.98329926 290.76300049
80.80419922 20.11050034 290.73098755
80.56960297 20.23889923 290.71499634
80.33599854 20.36940002 290.73098755
80.10109711 20.49990082 290.74700928
79.87729645 20.63030052 290.76000977
79.65409851 20.75749969 290.72799683
79.42819977 20.88680077 290.72698975
79.21859741 21.01169968 290.66299438
78.99919891 21.13800049 290.62100220
78.77100372 21.26969910 290.65301514
78.55059814 21.40029907 290.67001343
78.31279755 21.52919960 290.66299438
78.07209778 21.65730095 290.64498901
77.83270264 21.78969955 290.68600464
77.59819794 21.91850090 290.67700195
77.36270142 22.04660034 290.65899658
77.15720367 22.17499924 290.64801025
76.92870331 22.30430031 290.64599609
76.69039917 22.43820000 290.70401001
76.46060181 22.56609917 290.68399048
76.23490143 22.69549942 290.68499756
75.99980164 22.82189941 290.64599609
75.78009796 22.94709969 290.59298706
75.55979919 23.07719994 290.60198975
75.33360291 23.20910072 290.63400269
75.10679626 23.33720016 290.61801147
74.86779785 23.46739960 290.62799072
74.63089752 23.59740067 290.63598633
74.40609741 23.72340012 290.59399414
74.18119812 23.84939957 290.55300903
73.96309662 23.97920036 290.55801392
73.75669861 24.10440063 290.50900269
73.52929688 24.23320007 290.50201416
73.30239868 24.36800003 290.56698608
73.06929779 24.49950027 290.59298706
72.85019684 24.62719917 290.57299805
72.63909912 24.75370026 290.54000854
72.39510345 24.88479996 290.55999756
72.14769745 25.01490021 290.56900024
71.90180206 25.14290047 290.55398560
71.68329620 25.27140045 290.54299927
71.46880341 25.39699936 290.50100708
71.27230072 25.52339935 290.46701050
71.04949951 25.65180016 290.45700073
70.79750061 25.78450012 290.49499512
70.55750275 25.91600037 290.51901245
70.32209778 26.04380035 290.50201416
70.10569763 26.16819954 290.44799805
69.89810181 26.29560089 290.42599487
69.65560150 26.42460060 290.42300415
69.43090057 26.55209923 290.40301514
69.21179962 26.68210030 290.41198730
68.98329926 26.81270027 290.42599487
68.74680328 26.94230080 290.42898560
68.50740051 27.07159996 290.42898560
68.28540039 27.19960022 290.41598511
68.05840302 27.32640076 290.38900757
67.82209778 27.45689964 290.40100098
67.61679840 27.58040047 290.34100342
67.39910126 27.70779991 290.32199097
67.15360260 27.83790016 290.32998657
66.93689728 27.97179985 290.37799072
66.72959900 28.09609985 290.32699585
66.48799896 28.22540092 290.32699585
66.24819946 28.35460091 290.32699585
66.01529694 28.48310089 290.31900024
65.78659821 28.61440086 290.33999634
65.55429840 28.74270058 290.32998657
65.33580017 28.86870003 290.29800415
65.12449646 28.99710083 290.28900146
64.90930176 29.12420082 290.26800537
64.65550232 29.25670052 290.30099487
64.42430115 29.38349915 290.27600098
64.20510101 29.51059914 290.25601196
63.98799896 29.64290047 290.28601074
63.77180099 29.77009964 290.26599121
63.53279877 29.89929962 290.26599121
63.29150009 30.02879906 290.26901245
63.08160019 30.15789986 290.26800537
62.85879898 30.28899956 290.28500366
62.62820053 30.41760063 290.27899170
62.39009857 30.54599953 290.27200317
62.17720032 30.66839981 290.20700073
61.95959854 30.79420090 290.17498779
61.75339890 30.92239952 290.16500854
61.51620102 31.05310059 290.17999268
61.29999924 31.18000031 290.15899658
61.07160187 31.30920029 290.15899658
60.82820129 31.44059944 290.17999268
60.60699844 31.56940079 290.17599487
60.38539886 31.69470024 290.14099121
60.15990067 31.82419968 290.14401245
59.91569901 31.95450020 290.15399170
59.70809937 32.08229828 290.14199829
59.50009918 32.21080017 290.13500977
59.28379822 32.33840179 290.12200928
59.03879929 32.46739960 290.11999512
58.78939819 32.59659958 290.12100220
58.55709839 32.72549820 290.11801147
58.32669830 32.85350037 290.10800171
58.06370163 32.98659897 290.14199829
57.83710098 33.11640167 290.14801025
57.66569901 33.23369980 290.04400635
57.43330002 33.36199951 290.03799438
57.17079926 33.49459839 290.06799316
56.93889999 33.62559891 290.08300781
56.73189926 33.75400162 290.07699585
56.49530029 33.88470078 290.09100342
56.26789856 34.01150131 290.07101440
56.07429886 34.13650131 290.03500366
55.85390091 34.25839996 289.97399902
55.59960175 34.39429855 290.03201294
55.36780167 34.52249908 290.02398682
55.14870071 34.65029907 290.01300049
54.91780090 34.77859879 290.00601196
54.68330002 34.90560150 289.98800659
54.47309875 35.03680038 290.00601196
54.27040100 35.16199875 289.97399902
54.04389954 35.28639984 289.93499756
53.80250168 35.41249847 289.91101074
53.54940033 35.54499817 289.93899536
53.35499954 35.67060089 289.91101074
53.13040161 35.80049896 289.91699219
52.86780167 35.93289948 289.94400024
52.64440155 36.06169891 289.94198608
52.43569946 36.18600082 289.90399170
52.19599915 36.31919861 289.93701172
51.97729874 36.44530106 289.91299438
51.77550125 36.56829834 289.86499023
51.55080032 36.69200134 289.82299805
51.29859924 36.82880020 289.88400269
51.04940033 36.96540070 289.94299316
50.82809830 37.09339905 289.93499756
50.61209869 37.21820068 289.90100098
50.39830017 37.34329987 289.87100220
50.16839981 37.47259903 289.87298584
49.95289993 37.60049820 289.86401367
49.74879837 37.72769928 289.85000610
49.52140045 37.85950089 289.87100220
49.30220032 37.98450089 289.83999634
49.06389999 38.10950089 289.80899048
48.83929825 38.24079895 289.82598877
48.63719940 38.36759949 289.80999756
48.42789841 38.49309921 289.78399658
48.19200134 38.61999893 289.76800537
47.94810104 38.75189972 289.78900146
47.69490051 38.88669968 289.83200073
47.49209976 39.01129913 289.79998779
47.28839874 39.13550186 289.76400757
47.04029846 39.26760101 289.78698730
46.79750061 39.39630127 289.78399658
46.60829926 39.52199936 289.76000977
46.39860153 39.64910126 289.74600220
46.19469833 39.77069855 289.69198608
45.95999908 39.89680099 289.67098999
45.70769882 40.03120041 289.71099854
45.47689819 40.16719818 289.76199341
45.25320053 40.29510117 289.75299072
45.03070068 40.41709900 289.70300293
44.80820084 40.54119873 289.66900635
44.56880188 40.67549896 289.70700073
44.33079910 40.80759811 289.72900391
44.12269974 40.92800140 289.66799927
43.91500092 41.05379868 289.64599609
43.68159866 41.18709946 289.67700195
43.47169876 41.31389999 289.66198730
43.25289917 41.43230057 289.58801270
43.03950119 41.55369949 289.53500366
42.81999969 41.68479919 289.54998779
42.59329987 41.81880188 289.58599854
42.36470032 41.95220184 289.61700439
42.12919998 42.08150101 289.61898804
41.86600113 42.21179962 289.62899780
41.60549927 42.34400177 289.65100098
41.37429810 42.47999954 289.69900513
41.16759872 42.60469818 289.67001343
40.97069931 42.72230148 289.59298706
40.77750015 42.84120178 289.52499390
40.55300140 42.97200012 289.53799438
40.30889893 43.10800171 289.58599854
40.05239868 43.24039841 289.60900879
39.83700180 43.36800003 289.60000610
39.61090088 43.49700165 289.60101318
39.38970184 43.62450027 289.59201050
39.15969849 43.74950027 289.56500244
38.96179962 43.87480164 289.54199219
38.75099945 44.00310135 289.53799438
38.51390076 44.13359833 289.54800415
38.28860092 44.25479889 289.49798584
38.03379822 44.38890076 289.53100586
37.81359863 44.51670074 289.52499390
37.62210083 44.64120102 289.49600220
37.38650131 44.77000046 289.49600220
37.14599991 44.90090179 289.50799561
36.91609955 45.03020096 289.51199341
36.68339920 45.15700150 289.49798584
36.47959900 45.28099823 289.46701050
36.26890182 45.40349960 289.42599487
36.02890015 45.53680038 289.45401001
35.79619980 45.66590118 289.45599365
35.58800125 45.79199982 289.43798828
35.34090042 45.92499924 289.46499634
35.10829926 46.05530167 289.47399902
34.88930130 46.17710114 289.42999268
34.68130112 46.30089951 289.39700317
34.45819855 46.43460083 289.42800903
34.22650146 46.56489944 289.43701172
33.98080063 46.69340134 289.43499756
33.73880005 46.82260132 289.43701172
33.52700043 46.94630051 289.40499878
33.31779861 47.06309891 289.33099365
33.12670135 47.18270111 289.27499390
32.90829849 47.31309891 289.28500366
32.66809845 47.44869995 289.32598877
32.41849899 47.58440018 289.36801147
32.17869949 47.71670151 289.38900757
31.96829987 47.84320068 289.37500000
31.76639938 47.96289825 289.32000732
31.52610016 48.08940125 289.30599976
31.30780029 48.21319962 289.27600098
31.08900070 48.34540176 289.29598999
30.83530045 48.48120117 289.33801270
30.59079933 48.61000061 289.33801270
30.35960007 48.73410034 289.30999756
30.14389992 48.86399841 289.31698608
29.93099976 48.98979950 289.29901123
29.72850037 49.10879898 289.24099731
29.50760078 49.23170090 289.20700073
29.26269913 49.37020111 289.26400757
29.03179932 49.50279999 289.28601074
28.80299950 49.62829971 289.26699829
28.60149956 49.74470139 289.19601440
28.39089966 49.86840057 289.16598511
28.19129944 49.99250031 289.14001465
27.97660065 50.11790085 289.12100220
27.70579910 50.25350189 289.16000366
27.47879982 50.38330078 289.16598511
27.24279976 50.51610184 289.18899536
26.99860001 50.64599991 289.19601440
26.78420067 50.77090073 289.17401123
26.57579994 50.89730072 289.16101074
26.35350037 51.02569962 289.15899658
26.10269928 51.15430069 289.15798950
25.86470032 51.28039932 289.14401245
25.66869926 51.40779877 289.13598633
25.44890022 51.53620148 289.13400269
25.20330048 51.66590118 289.14001465
24.95149994 51.79439926 289.13800049
24.74690056 51.92169952 289.13000488
24.53499985 52.04769897 289.11499023
24.33250046 52.16650009 289.06100464
24.09609985 52.29819870 289.07699585
23.85799980 52.43239975 289.10699463
23.62599945 52.56320190 289.11898804
23.41880035 52.68140030 289.06201172
23.20739937 52.80099869 289.01199341
23.00569916 52.91930008 288.95498657
22.79490089 53.04710007 288.95098877
22.58880043 53.17399979 288.94100952
22.35790062 53.30780029 288.96899414
22.11899948 53.44459915 289.01300049
21.85339928 53.58509827 289.07699585
21.62350082 53.71279907 289.07199097
21.42390060 53.83369827 289.02999878
21.17440033 53.96839905 289.06201172
20.93309975 54.09469986 289.04901123
20.69440079 54.22200012 289.04199219
20.48880005 54.34719849 289.02301025
20.28359985 54.47349930 289.01098633
20.04010010 54.60480118 289.02499390
19.80019951 54.73759842 289.04699707
19.59709930 54.85530090 288.98901367
19.38139915 54.97909927 288.96301270
19.12759972 55.11130142 288.98199463
18.90649986 55.23730087 288.96798706
18.70949936 55.35089874 288.88900757
18.49300003 55.47840118 288.88400269
18.24040031 55.61660004 288.93399048
18.03770065 55.73690033 288.89099121
17.83550072 55.86309814 288.87799072
17.62439919 55.98949814 288.86700439
17.39179993 56.11740112 288.86300659
17.14139938 56.24869919 288.87701416
16.92779922 56.37220001 288.85101318
16.65390015 56.51819992 288.94000244
16.40570068 56.65560150 288.98400879
16.16189957 56.78310013 288.97900391
15.96790028 56.89799881 288.90899658
15.77799988 57.01169968 288.83300781
15.56630039 57.13589859 288.81100464
15.37080002 57.25479889 288.76199341
15.14700031 57.38169861 288.75399780
14.91530037 57.51380157 288.77200317
14.68799973 57.65079880 288.81399536
14.47500038 57.77610016 288.79800415
14.23470020 57.90729904 288.81100464
14.02649975 58.02849960 288.77398682
13.81799984 58.15370178 288.75698853
13.58290005 58.28210068 288.75698853
13.34010029 58.40879822 288.74700928
13.08800030 58.54539871 288.78698730
12.84399986 58.67589951 288.79699707
12.63630009 58.80289841 288.78900146
12.42630005 58.93209839 288.79199219
12.19550037 59.06470108 288.81201172
11.97929955 59.18719864 288.78201294
11.75949955 59.31029892 288.75601196
11.51159954 59.44770050 288.79901123
11.29360008 59.57339859 288.78500366
11.10190010 59.68730164 288.71398926
10.89649963 59.81359863 288.70300293
10.68500042 59.93840027 288.68499756
10.45969963 60.06290054 288.66598511
10.20240021 60.19689941 288.69198608
9.96078014 60.32709885 288.70001221
9.75747013 60.45410156 288.69299316
9.56832981 60.57389832 288.65100098
9.33504009 60.70299911 288.65399170
9.08160019 60.83620071 288.67599487
8.85130024 60.97000122 288.70098877
8.66018963 61.09149933 288.66799927
8.42061043 61.21450043 288.64199829
8.18459034 61.34199905 288.63699341
7.98989010 61.46049881 288.58999634
7.77627993 61.59059906 288.59799194
225.71200562 -61.51950073 277.69601440
225.48199463 -61.39350128 277.68600464
225.26600647 -61.27159882 277.69299316
225.05099487 -61.14739990 277.69100952
224.85299683 -61.03639984 277.74798584
224.62899780 -60.90660095 277.72000122
224.38900757 -60.76890182 277.65600586
224.16900635 -60.64789963 277.66799927
223.97599792 -60.53129959 277.70001221
223.75500488 -60.40599823 277.69299316
223.52400208 -60.28099823 277.68600464
223.28799438 -60.15520096 277.67599487
223.05599976 -60.02560043 277.64801025
222.86099243 -59.90900040 277.68099976
222.62500000 -59.78200150 277.66500854
222.38299561 -59.65069962 277.62899780
222.17700195 -59.52790070 277.63299561
221.93600464 -59.40420151 277.63299561
221.70399475 -59.28290176 277.64300537
221.50700378 -59.16540146 277.67199707
221.30400085 -59.04830170 277.70300293
221.09700012 -58.92739868 277.71600342
220.86700439 -58.79719925 277.68499756
220.64300537 -58.66350174 277.63699341
220.43499756 -58.54019928 277.63800049
220.20799255 -58.41989899 277.65399170
219.98500061 -58.29819870 277.66299438
219.74699402 -58.16999817 277.64099121
219.52600098 -58.04690170 277.64401245
219.29800415 -57.92079926 277.63198853
219.09300232 -57.80020142 277.64599609
218.85600281 -57.67169952 277.62298584
218.61199951 -57.54880142 277.62600708
218.40899658 -57.42750168 277.63699341
218.19500732 -57.30490112 277.64199829
217.97500610 -57.17979813 277.63500977
217.75100708 -57.05849838 277.64599609
217.54100037 -56.93379974 277.64001465
217.30999756 -56.80339813 277.60699463
217.08099365 -56.68009949 277.60900879
216.86000061 -56.55950165 277.62298584
216.64300537 -56.43529892 277.61999512
216.44099426 -56.31320190 277.62701416
216.23100281 -56.19150162 277.63699341
216.00700378 -56.06969833 277.64599609
215.77799988 -55.94340134 277.63299561
215.54299927 -55.82220078 277.64401245
215.31700134 -55.69169998 277.60998535
215.08999634 -55.56620026 277.60000610
214.88200378 -55.44609833 277.61801147
214.65199280 -55.32089996 277.60998535
214.44900513 -55.20080185 277.62701416
214.19900513 -55.06829834 277.58300781
213.99000549 -54.94860077 277.60198975
213.76899719 -54.82759857 277.61499023
213.54299927 -54.70259857 277.60800171
213.35699463 -54.58530045 277.64001465
213.15699768 -54.46500015 277.65701294
212.91400146 -54.33810043 277.64001465
212.68800354 -54.21129990 277.62399292
212.45599365 -54.08499908 277.60998535
212.23800659 -53.95989990 277.60198975
212.01699829 -53.84000015 277.62100220
211.79600525 -53.71340179 277.60501099
211.56700134 -53.58760071 277.59399414
211.36900330 -53.46820068 277.61599731
211.15499878 -53.34799957 277.63299561
210.92799377 -53.22769928 277.65100098
210.69200134 -53.10210037 277.64001465
210.45899963 -52.97700119 277.63299561
210.24299622 -52.85559845 277.64401245
210.02999878 -52.73350143 277.65200806
209.82099915 -52.61360168 277.67098999
209.62399292 -52.49710083 277.70901489
209.41200256 -52.37319946 277.70700073
209.17399597 -52.24629974 277.69000244
208.94099426 -52.11719894 277.66101074
208.71699524 -51.99340057 277.66000366
208.47399902 -51.86500168 277.63500977
208.27000427 -51.74349976 277.64599609
208.06799316 -51.62580109 277.67700195
207.85699463 -51.50260162 277.67999268
207.61799622 -51.37689972 277.66900635
207.37199402 -51.24900055 277.64498901
207.19400024 -51.13550186 277.70001221
206.97500610 -51.01039886 277.69198608
206.73399353 -50.88130188 277.66198730
206.50300598 -50.75210190 277.63198853
206.28999329 -50.63000107 277.64001465
206.07499695 -50.51229858 277.67199707
205.85699463 -50.39020157 277.67999268
205.65100098 -50.26330185 277.66299438
205.44200134 -50.14120102 277.67098999
205.22099304 -50.01969910 277.68301392
204.99499512 -49.89369965 277.66900635
204.77600098 -49.76900101 277.66400146
204.55499268 -49.64730072 277.67401123
204.32699585 -49.52190018 277.66400146
204.11799622 -49.40110016 277.67999268
203.88400269 -49.27519989 277.66699219
203.65100098 -49.15090179 277.66299438
203.42100525 -49.02310181 277.64001465
203.20899963 -48.89939880 277.63900757
202.99899292 -48.77759933 277.64898682
202.77099609 -48.65869904 277.67599487
202.55299377 -48.53379822 277.66900635
202.32400513 -48.40969849 277.66598511
202.11999512 -48.28649902 277.66799927
201.91700745 -48.16600037 277.68600464
201.67700195 -48.03839874 277.66299438
201.43400574 -47.91360092 277.65600586
201.24099731 -47.80089951 277.72000122
201.03799438 -47.67720032 277.71899414
200.81700134 -47.54830170 277.68798828
200.61099243 -47.42819977 277.70901489
200.38000488 -47.30210114 277.69500732
200.16099548 -47.18019867 277.70498657
199.93099976 -47.05939865 277.72100830
199.71000671 -46.93439865 277.71398926
199.48300171 -46.80609894 277.68600464
199.25700378 -46.68009949 277.67199707
199.04899597 -46.56150055 277.70199585
198.83399963 -46.43769836 277.70001221
198.61300659 -46.31240082 277.69100952
198.38499451 -46.19200134 277.70999146
198.17999268 -46.07410049 277.74499512
197.97099304 -45.94990158 277.74099731
197.75100708 -45.82440186 277.73001099
197.51300049 -45.70090103 277.73098755
197.27799988 -45.57170105 277.69699097
197.06100464 -45.44900131 277.70199585
196.82699585 -45.32350159 277.69100952
196.59599304 -45.19689941 277.67300415
196.38999939 -45.07400131 277.67700195
196.16499329 -44.95109940 277.68200684
195.94799805 -44.82730103 277.68099976
195.73100281 -44.70299911 277.67700195
195.50900269 -44.57880020 277.67300415
195.28300476 -44.45629883 277.67999268
195.06199646 -44.33660126 277.70401001
194.85499573 -44.21319962 277.70599365
194.64500427 -44.09090042 277.71398926
194.42100525 -43.96849823 277.72198486
194.17999268 -43.84130096 277.69900513
193.96499634 -43.71509933 277.68301392
193.75100708 -43.59149933 277.68301392
193.53900146 -43.46820068 277.68600464
193.32400513 -43.34759903 277.70401001
193.10499573 -43.22729874 277.72601318
192.88299561 -43.10060120 277.70599365
192.65199280 -42.97159958 277.67098999
192.45599365 -42.85449982 277.71398926
192.24000549 -42.73569870 277.74499512
192.01899719 -42.60889816 277.72399902
191.80400085 -42.48350143 277.71301270
191.58900452 -42.36050034 277.71701050
191.37199402 -42.23320007 277.69400024
191.16299438 -42.11130142 277.70401001
190.92100525 -41.98929977 277.71499634
190.70899963 -41.86600113 277.71798706
190.49800110 -41.74390030 277.72799683
190.25199890 -41.61790085 277.71200562
190.02999878 -41.49290085 277.70300293
189.79499817 -41.36640167 277.68399048
189.56100464 -41.23830032 277.65301514
189.36599731 -41.12239838 277.70599365
189.15800476 -40.99990082 277.71301270
188.93099976 -40.87699890 277.71798706
188.73599243 -40.75709915 277.74398804
188.52000427 -40.63410187 277.74798584
188.28999329 -40.50699997 277.72399902
188.06500244 -40.38589859 277.74200439
187.83799744 -40.26029968 277.72799683
187.64500427 -40.13800049 277.73800659
187.42100525 -40.01499939 277.74301147
187.18699646 -39.88859940 277.72299194
186.96200562 -39.76440048 277.71899414
186.72599792 -39.63639832 277.68899536
186.50700378 -39.51539993 277.70700073
186.29600525 -39.39279938 277.71398926
186.08500671 -39.26990128 277.72000122
185.85400391 -39.14350128 277.70001221
185.65699768 -39.02040100 277.70401001
185.44900513 -38.89690018 277.70498657
185.21800232 -38.77740097 277.73400879
184.99200439 -38.65750122 277.76098633
184.75000000 -38.52700043 277.71200562
184.54200745 -38.40549850 277.72698975
184.34199524 -38.28450012 277.74600220
184.12800598 -38.15930176 277.73498535
183.89199829 -38.03129959 277.70300293
183.64799500 -37.90399933 277.67599487
183.44799805 -37.78170013 277.68600464
183.24699402 -37.66080093 277.70599365
183.04899597 -37.54290009 277.74798584
182.84300232 -37.42319870 277.77801514
182.59300232 -37.29639816 277.75500488
182.36000061 -37.17169952 277.74600220
182.15299988 -37.04710007 277.73901367
181.93299866 -36.92110062 277.72198486
181.72000122 -36.79970169 277.73901367
181.50300598 -36.67929840 277.76400757
181.27400208 -36.55229950 277.73800659
181.03799438 -36.42699814 277.72500610
180.83000183 -36.30440140 277.73300171
180.61199951 -36.17850113 277.71600342
180.40699768 -36.05080032 277.68499756
180.19999695 -35.93009949 277.70700073
179.97700500 -35.80839920 277.72198486
179.74699402 -35.68820190 277.74899292
179.51800537 -35.56309891 277.73699951
179.30900574 -35.43790054 277.72601318
179.08700562 -35.31529999 277.73400879
178.87199402 -35.18930054 277.71499634
178.65199280 -35.06399918 277.70199585
178.41499329 -34.93439865 277.65399170
178.17799377 -34.81209946 277.66500854
177.97099304 -34.69189835 277.69198608
177.75100708 -34.57160187 277.71899414
177.53100586 -34.44400024 277.68701172
177.32200623 -34.31750107 277.66299438
177.08900452 -34.19240189 277.65100098
176.88200378 -34.07580185 277.70901489
176.66799927 -33.95539856 277.73498535
176.43600464 -33.82839966 277.70800781
176.20700073 -33.70140076 277.67999268
175.99099731 -33.58160019 277.71099854
175.76699829 -33.45610046 277.69601440
175.55400085 -33.33720016 277.73498535
175.33200073 -33.21340179 277.73400879
175.10600281 -33.08649826 277.70599365
174.88600159 -32.96260071 277.70401001
174.68299866 -32.84370041 277.74398804
174.47399902 -32.72269821 277.76699829
174.26699829 -32.59560013 277.73699951
174.04400635 -32.47140121 277.73300171
173.81399536 -32.34469986 277.70599365
173.59800720 -32.22230148 277.71701050
173.36399841 -32.09709930 277.70300293
173.15800476 -31.97430038 277.71099854
172.94799805 -31.85110092 277.71499634
172.71899414 -31.73180008 277.75201416
172.50900269 -31.60799980 277.75201416
172.28599548 -31.48240089 277.73400879
172.06100464 -31.35829926 277.73001099
171.85099792 -31.23480034 277.73098755
171.62600708 -31.10519981 277.67800903
171.41600037 -30.98590088 277.71701050
171.18099976 -30.86149979 277.70999146
170.93200684 -30.73310089 277.66699219
170.72099304 -30.60919952 277.66400146
170.50500488 -30.48679924 277.67599487
170.27900696 -30.36429977 277.68600464
170.06700134 -30.24110031 277.69000244
169.83500671 -30.11739922 277.68899536
169.62199402 -29.99309921 277.68200684
169.41099548 -29.87080002 277.69400024
169.20700073 -29.74990082 277.72000122
168.99400330 -29.62919998 277.74798584
168.75900269 -29.50160027 277.70999146
168.52699280 -29.37639999 277.69601440
168.30000305 -29.25049973 277.67401123
168.09199524 -29.13039970 277.70700073
167.87300110 -29.00939941 277.73300171
167.65899658 -28.88599968 277.73498535
167.45300293 -28.75930023 277.70599365
167.22799683 -28.63459969 277.69500732
167.01600647 -28.51129913 277.69900513
166.80999756 -28.38689995 277.69100952
166.58799744 -28.26379967 277.69601440
166.36300659 -28.13809967 277.67498779
166.12699890 -28.01510048 277.68200684
165.88600159 -27.88920021 277.65899658
165.68099976 -27.76639938 277.66699219
165.47300720 -27.64130020 277.65200806
165.25000000 -27.52129936 277.68798828
165.02200317 -27.39660072 277.67800903
164.80799866 -27.27300072 277.67700195
164.58500671 -27.14760017 277.66000366
164.37199402 -27.02560043 277.67599487
164.15899658 -26.89920044 277.64700317
163.94099426 -26.77560043 277.64700317
163.70899963 -26.65460014 277.67401123
163.47500610 -26.52849960 277.64898682
163.26199341 -26.40800095 277.68099976
163.06399536 -26.28510094 277.68899536
162.84800720 -26.16049957 277.67898560
162.61599731 -26.03669930 277.67700195
162.38099670 -25.91209984 277.66598511
162.16900635 -25.78949928 277.67700195
161.95899963 -25.66679955 277.68701172
161.74499512 -25.54549980 277.71301270
161.54100037 -25.42230034 277.71701050
161.32699585 -25.30109978 277.74398804
161.10800171 -25.17460060 277.71301270
160.89300537 -25.04840088 277.68399048
160.67199707 -24.92679977 277.70599365
160.41799927 -24.80100060 277.68200684
160.20599365 -24.67749977 277.68399048
159.99400330 -24.55480003 277.69400024
159.75700378 -24.42970085 277.67700195
159.54400635 -24.30719948 277.69000244
159.32299805 -24.18470001 277.70300293
159.10299683 -24.05660057 277.65100098
158.89799500 -23.93129921 277.63198853
158.66499329 -23.80730057 277.62701416
158.43299866 -23.68250084 277.61300659
158.21200562 -23.55990028 277.62399292
157.99699402 -23.43540001 277.61401367
157.78100586 -23.31329918 277.63198853
157.56100464 -23.18619919 277.58898926
157.35600281 -23.06369972 277.60198975
157.15100098 -22.94289970 277.63598633
156.91600037 -22.82019997 277.64700317
156.67999268 -22.69529915 277.63101196
156.46299744 -22.57379913 277.65701294
156.23899841 -22.44709969 277.61898804
156.01400757 -22.32150078 277.59399414
155.79400635 -22.19969940 277.61599731
155.58999634 -22.07839966 277.64498901
155.36999512 -21.95310020 277.62399292
155.14100647 -21.82859993 277.61199951
154.90299988 -21.70389938 277.59799194
154.68499756 -21.58009911 277.59500122
154.47200012 -21.45709991 277.60299683
154.27299500 -21.33399963 277.60900879
154.06500244 -21.20899963 277.58999634
153.84700012 -21.08580017 277.59500122
153.62100220 -20.96190071 277.59100342
153.39500427 -20.83909988 277.60198975
153.18600464 -20.71780014 277.63198853
152.95100403 -20.59370041 277.62500000
152.71200562 -20.46899986 277.60998535
152.51300049 -20.34609985 277.61999512
152.30499268 -20.21949959 277.57800293
152.07499695 -20.09609985 277.58099365
151.85299683 -19.97470093 277.61099243
151.61599731 -19.85149956 277.61599731
151.39399719 -19.72629929 277.59399414
151.18499756 -19.60239983 277.58999634
150.98199463 -19.47949982 277.59899902
150.75599670 -19.35420036 277.57400513
150.54499817 -19.23240089 277.60000610
150.32200623 -19.10840034 277.59500122
150.10400391 -18.98640060 277.61700439
149.88200378 -18.86300087 277.61898804
149.66200256 -18.73699951 277.58401489
149.45500183 -18.61300087 277.57800293
149.22900391 -18.48929977 277.57699585
148.98800659 -18.36709976 277.59698486
148.76300049 -18.24500084 277.61898804
148.54800415 -18.12030029 277.60299683
148.32200623 -17.99290085 277.54299927
148.12300110 -17.87210083 277.58599854
147.90899658 -17.74970055 277.60400391
147.68200684 -17.62529945 277.59100342
147.46099854 -17.50049973 277.57299805
147.23899841 -17.37619972 277.56201172
147.01699829 -17.25169945 277.54598999
146.79800415 -17.12949944 277.56799316
146.57499695 -17.00580025 277.56500244
146.36799622 -16.88269997 277.57299805
146.14799500 -16.76040077 277.59500122
145.92100525 -16.63780022 277.61199951
145.70199585 -16.51630020 277.64700317
145.48699951 -16.39170074 277.62899780
145.26800537 -16.26639938 277.60101318
145.05700684 -16.14360046 277.61401367
144.82699585 -16.02039909 277.61999512
144.60200500 -15.89309978 277.55599976
144.39900208 -15.77019978 277.56698608
144.18600464 -15.64789963 277.59100342
143.96800232 -15.52140045 277.53799438
143.74800110 -15.39700031 277.52398682
143.53100586 -15.27439976 277.53900146
143.30599976 -15.15159988 277.55300903
143.09300232 -15.02869987 277.56600952
142.86099243 -14.90480042 277.55899048
142.64100647 -14.78230000 277.57998657
142.41799927 -14.65999985 277.60299683
142.19500732 -14.53829956 277.64001465
141.96200562 -14.41240025 277.59500122
141.73500061 -14.28950024 277.60900879
141.52900696 -14.16569996 277.60400391
141.30599976 -14.04049969 277.57400513
141.09100342 -13.91839981 277.60198975
140.88099670 -13.79419994 277.58999634
140.66900635 -13.67039967 277.58499146
140.45599365 -13.54749966 277.60000610
140.22799683 -13.42220020 277.56500244
139.99800110 -13.29640007 277.51800537
139.77200317 -13.17370033 277.53601074
139.54600525 -13.05189991 277.57199097
139.34300232 -12.92949963 277.59799194
139.12500000 -12.80700016 277.62200928
138.89799500 -12.68120003 277.57299805
138.67399597 -12.55500031 277.51400757
138.46099854 -12.43350029 277.55999756
138.25300598 -12.31120014 277.58801270
138.02200317 -12.18710041 277.57699585
137.80499268 -12.06379986 277.58200073
137.58799744 -11.93869972 277.54800415
137.36599731 -11.81579971 277.56298828
137.14999390 -11.69419956 277.61099243
136.93600464 -11.57180023 277.64001465
136.72599792 -11.44779968 277.62799072
136.51199341 -11.32409954 277.62701416
136.28300476 -11.19919968 277.59399414
136.06199646 -11.07540035 277.58801270
135.84100342 -10.95059967 277.55899048
135.61999512 -10.82759953 277.57101440
135.40400696 -10.70479965 277.59298706
135.18499756 -10.58010006 277.56201172
134.96600342 -10.45479965 277.51599121
134.73899841 -10.33100033 277.50900269
134.52699280 -10.20769978 277.51800537
134.28199768 -10.08469963 277.53201294
134.07699585 -9.96191978 277.55300903
133.86999512 -9.83778000 277.53698730
133.64999390 -9.71496010 277.55801392
133.43200684 -9.59251022 277.58999634
133.21499634 -9.46722984 277.54000854
132.98599243 -9.34261036 277.50900269
132.78599548 -9.22002983 277.53799438
132.58700562 -9.09681988 277.54901123
132.36099243 -8.97259998 277.52801514
132.13499451 -8.84943008 277.54000854
131.92300415 -8.72739029 277.58898926
131.70199585 -8.60482025 277.62100220
131.46899414 -8.48106956 277.61599731
131.25300598 -8.35620022 277.57299805
131.04299927 -8.23237038 277.56500244
130.82200623 -8.10910034 277.57501221
130.59199524 -7.98577976 277.58401489
130.36000061 -7.86106014 277.54299927
130.14199829 -7.73716021 277.53100586
129.91799927 -7.61313009 277.51400757
129.70799255 -7.48921013 277.50000000
129.50599670 -7.36650991 277.53100586
129.28700256 -7.24364996 277.55801392
129.08099365 -7.12036991 277.56900024
128.85299683 -6.99636984 277.55200195
128.62800598 -6.87254000 277.54098511
128.40699768 -6.74906015 277.54501343
128.20799255 -6.62564993 277.55099487
127.98600006 -6.50153017 277.52700806
127.76499939 -6.37725019 277.49499512
127.55200195 -6.25335979 277.48001099
127.32399750 -6.13003016 277.48901367
127.09400177 -6.00726986 277.52398682
126.88600159 -5.88360023 277.51901245
126.66699982 -5.75975990 277.50500488
126.42900085 -5.63543987 277.46600342
126.20999908 -5.51221991 277.48199463
126.00499725 -5.38878012 277.48699951
125.79399872 -5.26511002 277.48001099
125.56900024 -5.14135981 277.46798706
125.34200287 -5.01770020 277.45999146
125.11299896 -4.89451981 277.47900391
124.91600037 -4.77163982 277.51699829
124.70200348 -4.64814997 277.51998901
124.46199799 -4.52494001 277.54098511
124.24199677 -4.40093994 277.51400757
124.02999878 -4.27770996 277.53399658
123.83000183 -4.15399981 277.52301025
123.60500336 -4.03027010 277.51098633
123.37000275 -3.90629005 277.48001099
123.16100311 -3.78214002 277.43399048
122.95600128 -3.65831995 277.41101074
122.74199677 -3.53483009 277.41198730
122.50700378 -3.41161990 277.43600464
122.27899933 -3.28828001 277.45001221
122.04900360 -3.16507006 277.47698975
121.83399963 -3.04185009 277.50500488
121.62500000 -2.91795993 277.47198486
121.39700317 -2.79409003 277.43798828
121.17600250 -2.67047000 277.42700195
120.96800232 -2.54736996 277.47100830
120.75099945 -2.42395997 277.48498535
120.52400208 -2.30014992 277.45098877
120.30899811 -2.17636991 277.41699219
120.11900330 -2.05294991 277.42898560
119.91899872 -1.92948997 277.43600464
119.69100189 -1.80615997 277.46301270
119.44200134 -1.68264997 277.46499634
119.22599792 -1.55920994 277.48098755
119.02400208 -1.43570995 277.48800659
118.79799652 -1.31210995 277.47299194
118.58000183 -1.18847001 277.44699097
118.35800171 -1.06496000 277.44900513
118.12899780 -0.94131702 277.41000366
117.90000153 -0.81779200 277.40200806
117.69499969 -0.69426900 277.39099121
117.46600342 -0.57082200 277.41198730
117.26399994 -0.44735301 277.43200684
117.05500031 -0.32383600 277.42498779
116.84100342 -0.20030899 277.39599609
116.61599731 -0.07681390 277.38900757
116.40399933 0.04668600 277.44699097
116.17700195 0.17021400 277.46701050
115.94000244 0.29368699 277.41799927
115.73100281 0.41715300 277.39401245
115.51799774 0.54061598 277.37799072
115.29900360 0.66413301 277.39199829
115.08000183 0.78772497 277.42700195
114.85900116 0.91118097 277.41101074
114.64199829 1.03456998 277.38198853
114.41799927 1.15816998 277.40899658
114.19000244 1.28172004 277.42098999
113.97200012 1.40530002 277.43600464
113.76100159 1.52867997 277.41198730
113.54399872 1.65223002 277.42001343
113.30400085 1.77555001 277.39199829
113.09899902 1.89891005 277.37200928
112.90699768 2.02221990 277.34799194
112.68499756 2.14573002 277.35299683
112.47000122 2.26957989 277.39898682
112.25399780 2.39311004 277.40301514
112.02999878 2.51659989 277.40301514
111.80500031 2.64019990 277.41400146
111.58699799 2.76406002 277.45001221
111.35800171 2.88742995 277.43499756
111.15200043 3.01060009 277.40399170
110.95300293 3.13368011 277.36700439
110.71099854 3.25703001 277.35598755
110.48699951 3.38093996 277.39199829
110.29199982 3.50418997 277.37298584
110.06900024 3.62754011 277.36199951
109.84600067 3.75100994 277.36199951
109.63400269 3.87440991 277.35598755
109.40799713 3.99791002 277.35800171
109.18399811 4.12198019 277.39801025
108.96399689 4.24548006 277.39801025
108.75199890 4.36884022 277.38900757
108.54699707 4.49194002 277.36599731
108.31900024 4.61595011 277.39700317
108.09100342 4.73932981 277.39099121
107.88700104 4.86280012 277.39001465
107.66999817 4.98712015 277.43600464
107.44899750 5.11037016 277.42199707
107.21600342 5.23345995 277.39898682
107.00000000 5.35607004 277.35400391
106.76799774 5.47909021 277.33099365
106.55799866 5.60221004 277.31399536
106.34700012 5.72593021 277.32699585
106.14199829 5.84957981 277.33499146
105.93000031 5.97289991 277.32800293
105.71199799 6.09699011 277.35699463
105.48400116 6.22161007 277.40798950
105.26899719 6.34528017 277.41598511
105.05999756 6.46810007 277.38598633
104.83200073 6.59208012 277.40701294
104.61699677 6.71474981 277.37298584
104.40399933 6.83776999 277.35400391
104.16799927 6.96191978 277.38101196
103.94499969 7.08611012 277.40798950
103.73500061 7.20943022 277.40200806
103.51899719 7.33244991 277.38400269
103.28700256 7.45515013 277.35400391
103.05799866 7.57823992 277.33999634
102.84200287 7.70088005 277.31100464
102.64199829 7.82495022 277.33200073
102.43199921 7.94825983 277.32699585
102.21700287 8.07238960 277.35000610
101.98699951 8.19575024 277.34600830
101.77700043 8.31863976 277.32699585
101.56900024 8.44252014 277.33999634
101.35399628 8.56550980 277.32501221
101.13700104 8.68912983 277.32998657
100.92800140 8.81338024 277.35501099
100.71499634 8.93770981 277.38101196
100.48999786 9.06093979 277.37298584
100.26399994 9.18387032 277.35699463
100.04100037 9.30747986 277.36099243
99.82849884 9.42930984 277.31201172
99.61979675 9.55204964 277.29098511
99.39260101 9.67451000 277.26300049
99.16560364 9.79907990 277.29501343
98.93900299 9.92376995 277.32998657
98.70839691 10.04749966 277.33700562
98.47760010 10.17090034 277.33599854
98.26270294 10.29419994 277.32998657
98.03040314 10.41899967 277.36700439
97.80650330 10.54259968 277.36999512
97.58760071 10.66510010 277.34399414
97.36460114 10.78759956 277.32000732
97.14640045 10.91030025 277.30099487
96.93060303 11.03209972 277.26000977
96.73020172 11.15540028 277.25399780
96.53119659 11.27869987 277.25299072
96.32669830 11.40330029 277.27999878
96.12429810 11.52770042 277.30200195
95.90319824 11.64970016 277.26998901
95.67759705 11.77309990 277.26800537
95.46540070 11.89659977 277.27099609
95.22299957 12.02120018 277.29598999
94.99610138 12.14439964 277.29098511
94.77559662 12.26840019 277.30300903
94.56189728 12.39089966 277.28298950
94.35150146 12.51200008 277.23001099
94.13559723 12.63640022 277.25201416
93.90720367 12.76099968 277.27801514
93.67590332 12.88529968 277.29501343
93.46420288 13.00710011 277.26098633
93.26200104 13.12979984 277.24600220
93.02950287 13.25469971 277.27600098
92.80339813 13.37959957 277.30499268
92.60759735 13.50199986 277.28500366
92.38999939 13.62440014 277.26300049
92.15709686 13.74909973 277.28799438
91.93779755 13.87269974 277.29199219
91.73619843 13.99349976 277.23999023
91.51429749 14.11520004 277.20599365
91.28579712 14.24050045 277.24200439
91.05410004 14.36439991 277.25201416
90.84459686 14.48680019 277.23098755
90.62159729 14.60990047 277.22601318
90.40989685 14.73289967 277.21798706
90.19999695 14.85550022 277.20300293
89.99389648 14.97949982 277.21301270
89.77230072 15.10239983 277.20498657
89.53859711 15.22690010 277.22399902
89.33159637 15.35019970 277.22198486
89.11990356 15.47309971 277.21200562
88.90529633 15.59669971 277.21701050
88.67859650 15.71850014 277.18701172
88.44789886 15.84150028 277.17999268
88.23079681 15.96490002 277.18099976
88.02860260 16.08919907 277.19601440
87.82279968 16.21159935 277.17898560
87.62069702 16.33309937 277.14700317
87.40450287 16.45669937 277.15100098
87.18019867 16.57939911 277.13900757
86.97540283 16.70149994 277.11700439
86.75060272 16.82460022 277.11401367
86.51280212 16.95079994 277.15899658
86.28549957 17.07509995 277.17498779
86.07849884 17.19849968 277.17401123
85.85269928 17.32130051 277.16500854
85.62619781 17.44459915 277.16299438
85.43399811 17.56550026 277.12399292
85.22540283 17.68750000 277.10198975
84.97969818 17.81150055 277.11300659
84.76589966 17.93530083 277.11898804
84.56390381 18.05929947 277.12899780
84.35890198 18.18180084 277.11700439
84.15160370 18.30489922 277.11099243
83.93029785 18.42740059 277.10000610
83.68470001 18.55220032 277.11999512
83.45520020 18.67600060 277.12701416
83.23500061 18.80120087 277.15301514
83.00399780 18.92550087 277.16699219
82.79139709 19.04800034 277.15399170
82.60019684 19.17020035 277.13598633
82.37860107 19.29280090 277.12600708
82.14140320 19.41620064 277.12600708
81.94300079 19.53739929 277.09500122
81.74459839 19.65979958 277.08200073
81.54620361 19.78330040 277.08401489
81.32980347 19.90909958 277.11700439
81.10469818 20.03219986 277.11401367
80.87789917 20.15290070 277.07800293
80.63369751 20.27650070 277.08099365
80.40019989 20.40130043 277.10101318
80.19650269 20.52379990 277.08801270
79.97070313 20.64620018 277.07598877
79.74780273 20.77099991 277.09600830
79.53869629 20.89469910 277.10000610
79.33589935 21.01510048 277.06100464
79.13110352 21.13680077 277.03900146
78.90059662 21.26129913 277.05398560
78.69360352 21.38570023 277.06799316
78.48000336 21.51180077 277.10400391
78.25330353 21.63619995 277.11700439
78.02089691 21.75740051 277.08898926
77.79250336 21.87899971 277.06698608
77.59310150 22.00070000 277.04699707
77.39579773 22.12210083 277.02200317
77.16729736 22.24600029 277.02899170
76.96749878 22.36969948 277.03399658
76.74669647 22.49329948 277.03698730
76.52539825 22.61359978 277.00000000
76.30529785 22.73789978 277.01199341
76.09619904 22.85820007 276.97500610
75.87750244 22.97870064 276.94100952
75.66159821 23.10320091 276.95700073
75.43509674 23.22970009 276.99499512
75.21829987 23.35339928 276.99798584
74.98809814 23.47459984 276.97299194
74.76660156 23.59779930 276.97299194
74.53320313 23.72209930 276.98400879
74.32019806 23.84790039 277.01400757
74.11209869 23.96739960 276.96899414
73.91459656 24.08760071 276.93301392
73.70339966 24.21129990 276.93899536
73.50199890 24.33620071 276.95599365
73.26869965 24.46019936 276.96398926
73.04419708 24.58239937 276.95199585
72.82409668 24.70490074 276.94299316
72.61789703 24.82530022 276.91101074
72.42009735 24.94630051 276.88598633
72.18750000 25.06970024 276.88699341
71.94680023 25.19330025 276.89099121
71.71779633 25.31690025 276.89401245
71.51119995 25.44070053 276.89999390
71.30760193 25.56299973 276.89001465
71.09089661 25.68899918 276.91900635
70.87449646 25.81399918 276.93798828
70.64330292 25.93950081 276.96099854
70.40950012 26.06139946 276.94699097
70.19059753 26.18409920 276.94000244
69.98539734 26.30190086 276.88198853
69.78790283 26.41749954 276.80200195
69.58470154 26.54179955 276.81298828
69.36579895 26.66950035 276.85998535
69.13459778 26.79500008 276.88299561
68.91149902 26.91959953 276.89599609
68.68299866 27.04199982 276.88800049
68.47209930 27.16360092 276.86999512
68.25019836 27.28540039 276.85501099
68.07839966 27.40399933 276.80899048
67.88249969 27.52499962 276.78601074
67.65859985 27.64719963 276.77600098
67.43060303 27.77090073 276.78100586
67.21479797 27.89369965 276.77600098
66.98979950 28.01980019 276.80398560
66.75969696 28.14410019 276.81500244
66.54419708 28.26519966 276.79400635
66.34329987 28.38559914 276.76699829
66.11990356 28.50769997 276.75698853
65.89170074 28.63769913 276.82199097
65.68190002 28.76160049 276.82901001
65.46659851 28.88269997 276.80700684
65.26319885 29.00329971 276.78201294
65.03929901 29.12610054 276.77899170
64.82050323 29.25110054 276.79501343
64.59369659 29.37290001 276.78201294
64.39379883 29.49150085 276.73901367
64.19460297 29.61039925 276.69799805
63.96369934 29.73310089 276.69400024
63.72610092 29.86090088 276.73699951
63.51839828 29.98570061 276.75201416
63.28530121 30.10919952 276.75399780
63.05950165 30.23320007 276.76199341
62.84550095 30.35540009 276.75201416
62.64799881 30.47730064 276.74099731
62.43230057 30.59930038 276.73001099
62.21379852 30.72109985 276.71701050
61.99829865 30.84600067 276.73199463
61.78139877 30.96859932 276.72698975
61.57320023 31.08909988 276.70300293
61.35240173 31.21179962 276.69900513
61.13249969 31.33729935 276.71899414
60.92340088 31.45879936 276.70498657
60.68939972 31.58279991 276.71200562
60.46540070 31.70499992 276.70300293
60.24750137 31.82519913 276.67700195
60.03670120 31.95100021 276.70001221
59.82379913 32.07669830 276.72198486
59.61299896 32.19910049 276.71499634
59.39210129 32.31700134 276.66900635
59.17169952 32.44120026 276.67800903
58.92179871 32.56959915 276.72198486
58.71459961 32.69060135 276.70401001
58.51279831 32.80899811 276.66400146
58.31919861 32.93019867 276.64700317
58.10509872 33.05360031 276.64898682
57.90090179 33.17390060 276.62500000
57.69079971 33.29209900 276.58401489
57.45700073 33.41939926 276.61801147
57.21929932 33.54660034 276.65200806
56.98970032 33.67449951 276.69100952
56.78279877 33.79479980 276.66699219
56.57529831 33.91379929 276.63299561
56.34659958 34.03609848 276.62600708
56.12089920 34.15969849 276.63000488
55.91059875 34.28319931 276.63299561
55.70920181 34.40420151 276.61599731
55.49300003 34.52569962 276.60198975
55.25989914 34.64960098 276.60800171
55.04209900 34.77220154 276.60400391
54.83779907 34.89369965 276.59100342
54.62590027 35.01380157 276.56698608
54.44869995 35.12900162 276.50399780
54.26200104 35.24720001 276.46600342
54.01890182 35.37580109 276.51000977
53.77050018 35.50709915 276.57299805
53.55509949 35.63140106 276.58300781
53.35010147 35.74549866 276.51300049
53.14250183 35.86500168 276.48498535
52.93349838 35.98889923 276.49099731
52.71739960 36.11090088 276.48300171
52.50559998 36.23030090 276.45498657
52.27349854 36.36019897 276.50601196
52.04700089 36.48849869 276.54598999
51.84120178 36.60810089 276.51998901
51.63320160 36.72549820 276.47698975
51.44089890 36.84719849 276.46600342
51.24929810 36.96580124 276.43200684
51.02460098 37.08520126 276.40499878
50.79470062 37.21139908 276.42800903
50.54909897 37.34360123 276.49600220
50.32759857 37.46630096 276.49398804
50.13059998 37.58520126 276.46301270
49.91970062 37.70780182 276.45901489
49.68600082 37.83050156 276.45599365
49.48080063 37.95349884 276.45599365
49.25339890 38.07939911 276.47601318
49.05149841 38.19969940 276.45599365
48.86669922 38.31790161 276.42098999
48.65420151 38.44110107 276.42199707
48.42369843 38.56639862 276.43798828
48.20840073 38.68439865 276.40200806
48.02190018 38.79729843 276.32901001
47.78559875 38.92229843 276.34399414
47.56430054 39.05099869 276.38400269
47.36159897 39.17330170 276.37799072
47.15349960 39.29539871 276.37200928
46.94760132 39.41949844 276.37899780
46.73279953 39.54320145 276.38400269
46.50460052 39.66019821 276.34201050
46.27849960 39.78300095 276.34100342
46.06869888 39.90589905 276.33999634
45.84690094 40.03150177 276.35699463
45.62020111 40.15560150 276.36499023
45.43190002 40.27339935 276.32901001
45.20500183 40.40250015 276.36999512
44.95719910 40.54019928 276.47000122
44.74530029 40.66120148 276.45599365
44.54830170 40.77479935 276.39199829
44.35660172 40.88629913 276.31399536
44.14960098 41.00379944 276.27700806
43.89559937 41.13999939 276.36599731
43.66579819 41.26399994 276.37200928
43.47029877 41.37929916 276.32000732
43.26490021 41.50049973 276.30801392
43.05839920 41.62979889 276.35000610
42.84989929 41.74760056 276.31500244
42.62269974 41.86709976 276.29199219
42.39270020 41.99190140 276.30398560
42.19049835 42.11299896 276.29199219
41.97259903 42.24000168 276.31799316
41.75379944 42.35940170 276.29400635
41.52669907 42.48490143 276.30999756
41.33219910 42.60639954 276.30099487
41.14590073 42.72430038 276.26800537
40.94940186 42.84099960 276.22698975
40.71350098 42.96480179 276.23199463
40.46220016 43.09000015 276.24700928
40.25400162 43.21369934 276.25100708
40.04899979 43.33440018 276.23699951
39.81169891 43.46179962 276.26501465
39.57569885 43.58489990 276.26599121
39.39139938 43.69810104 276.20300293
39.17440033 43.81859970 276.18798828
38.93780136 43.94710159 276.22299194
38.71969986 44.07360077 276.24499512
38.50370026 44.19820023 276.25500488
38.30379868 44.32569885 276.28298950
38.09519958 44.44219971 276.24301147
37.87540054 44.55739975 276.19500732
37.65129852 44.68009949 276.19299316
37.43190002 44.79949951 276.17098999
37.20949936 44.91870117 276.14801025
37.00199890 45.03770065 276.12399292
36.79859924 45.16830063 276.17098999
36.56959915 45.29779816 276.21099854
36.36029816 45.41569901 276.17999268
36.16870117 45.52870178 276.11999512
35.96590042 45.64659882 276.08898926
35.71839905 45.77870178 276.14498901
35.47769928 45.90950012 276.19198608
35.26319885 46.03430176 276.20300293
35.04199982 46.16090012 276.22500610
34.82120132 46.28279877 276.21899414
34.60760117 46.39889908 276.17800903
34.38850021 46.51630020 276.14498901
34.18299866 46.63180161 276.10000610
33.98289871 46.75559998 276.10598755
33.75770187 46.88059998 276.11801147
33.56240082 46.99919891 276.09201050
33.34609985 47.11780167 276.06698608
33.10860062 47.24879837 276.11499023
32.87749863 47.37580109 276.13900757
32.65629959 47.50189972 276.15701294
32.44879913 47.61989975 276.12799072
32.26610184 47.73440170 276.07998657
32.08020020 47.84719849 276.02099609
